# .PCD v.7 - Point Cloud Data file format
VERSION .7
FIELDS x y z normal_x normal_y normal_z
SIZE 4 4 4 4 2 4
TYPE F F F F U F
COUNT 1 1 1 1 1 1
WIDTH 906
HEIGHT 1
VIEWPOINT 0 0 0 1 0 0 0
POINTS 906
DATA ascii
-1.160938 -1.372330 0.342604 72.000000 2 266.834854
-1.213307 -1.433728 0.169441 75.000000 0 266.834856
-0.039248 -0.031540 4.219113 30.000000 31 266.834867
-0.330036 -0.369842 3.151671 39.000000 28 266.834870
-0.404894 -0.452660 2.943292 40.000000 27 266.834872
-0.510127 -0.593239 2.546936 49.000000 25 266.834875
-0.595539 -0.700283 2.225239 53.000000 23 266.834877
-0.678348 -0.797926 1.985783 54.000000 21 266.834880
-0.745903 -0.877383 1.763981 54.000000 19 266.834882
-0.804846 -0.946710 1.563820 50.000000 17 266.834885
-0.160446 -0.163347 3.788060 37.000000 30 266.834893
-0.256251 -0.273942 3.449972 37.000000 29 266.834895
-0.460269 -0.527716 2.731637 48.000000 26 266.834898
-0.557360 -0.653082 2.389033 53.000000 24 266.834900
-0.636990 -0.746902 2.092640 63.000000 22 266.834903
-0.708362 -0.830872 1.856101 54.000000 20 266.834906
-0.772156 -0.905694 1.650174 57.000000 18 266.834908
-0.823358 -0.965746 1.454081 60.000000 16 266.834911
-0.858356 -1.012150 1.383943 60.000000 15 266.834868
-0.905882 -1.068187 1.211319 55.000000 13 266.834871
-0.950887 -1.120859 1.048300 62.000000 11 266.834873
-0.995432 -1.173362 0.891671 67.000000 9 266.834876
-1.047425 -1.234212 0.742339 71.000000 7 266.834879
-1.089990 -1.283912 0.584670 73.000000 5 266.834881
-1.134952 -1.336874 0.424418 75.000000 3 266.834884
-1.189406 -1.400520 0.257583 62.000000 1 266.834886
-0.878251 -1.032319 1.287891 64.000000 14 266.834894
-0.923630 -1.085653 1.121433 65.000000 12 266.834897
-0.970748 -1.140634 0.965425 68.000000 10 266.834899
-1.021423 -1.200172 0.816000 72.000000 8 266.834902
-1.068772 -1.255363 0.662639 75.000000 6 266.834904
-1.115746 -1.310074 0.505753 79.000000 4 266.834907
-1.162510 -1.364500 0.341914 72.000000 2 266.834909
-1.211823 -1.421879 0.169038 75.000000 0 266.834912
-0.039358 -0.031403 4.219113 31.000000 31 266.834923
-0.330805 -0.368110 3.146731 43.000000 28 266.834925
-0.405790 -0.450488 2.938397 38.000000 27 266.834928
-0.511217 -0.590326 2.542164 47.000000 25 266.834930
-0.596709 -0.696716 2.220636 53.000000 23 266.834933
-0.679570 -0.793733 1.981394 52.000000 21 266.834935
-0.747131 -0.872637 1.759848 54.000000 19 266.834938
-0.806061 -0.941460 1.559983 50.000000 17 266.834941
-0.161015 -0.162786 3.788060 37.000000 30 266.834948
-0.256838 -0.272657 3.445001 37.000000 29 266.834951
-0.461278 -0.525161 2.726798 48.000000 26 266.834953
-0.558511 -0.649824 2.384340 54.000000 24 266.834956
-0.638174 -0.743022 2.088140 64.000000 22 266.834959
-0.709559 -0.826416 1.851835 52.000000 20 266.834961
-0.773350 -0.900706 1.646185 57.000000 18 266.834964
-0.824516 -0.960294 1.450406 62.000000 16 266.834966
-0.859568 -1.006436 1.380438 60.000000 15 266.834924
-0.907077 -1.062059 1.208181 55.000000 13 266.834926
-0.952078 -1.114354 1.045559 64.000000 11 266.834929
-0.996644 -1.166512 0.889353 67.000000 9 266.834932
-1.048715 -1.227024 0.740466 71.000000 7 266.834934
-1.091347 -1.276453 0.583261 72.000000 5 266.834937
-1.136420 -1.329171 0.423485 73.000000 3 266.834939
-1.191050 -1.392575 0.257137 61.000000 1 266.834942
-0.879420 -1.026411 1.284566 64.000000 14 266.834950
-0.924784 -1.079353 1.118490 65.000000 12 266.834952
-0.969113 -1.130691 0.960360 68.000000 10 266.834955
-1.022652 -1.193153 0.813902 72.000000 8 266.834957
-1.070074 -1.248040 0.660996 75.000000 6 266.834960
-1.113984 -1.298793 0.503409 79.000000 4 266.834962
-1.164041 -1.356676 0.341224 71.000000 2 266.834965
-1.213525 -1.413849 0.168836 75.000000 0 266.834967
-0.039467 -0.031265 4.219113 31.000000 31 266.834978
-0.331567 -0.366377 3.141792 44.000000 28 266.834981
-0.406675 -0.448315 2.933502 39.000000 27 266.834983
-0.512293 -0.587413 2.537392 49.000000 25 266.834986
-0.599137 -0.694628 2.220636 53.000000 23 266.834988
-0.682337 -0.791356 1.981394 54.000000 21 266.834991
-0.748335 -0.867892 1.755715 56.000000 19 266.834993
-0.807248 -0.936213 1.556146 49.000000 17 266.834996
-0.161582 -0.162223 3.788060 37.000000 30 266.835004
-0.257789 -0.271759 3.445001 37.000000 29 266.835006
-0.462275 -0.522606 2.721958 46.000000 26 266.835009
-0.560776 -0.647870 2.384340 56.000000 24 266.835011
-0.639339 -0.739143 2.083639 64.000000 22 266.835014
-0.712439 -0.823934 1.851835 54.000000 20 266.835017
-0.774518 -0.895722 1.642195 57.000000 18 266.835019
-0.827863 -0.957410 1.450406 62.000000 16 266.835022
-0.860750 -1.000726 1.376934 62.000000 15 266.834979
-0.908240 -1.055934 1.205043 59.000000 13 266.834982
-0.953235 -1.107854 1.042817 62.000000 11 266.834985
-0.997821 -1.159668 0.887035 67.000000 9 266.834987
-1.049967 -1.219842 0.738593 69.000000 7 266.834990
-1.092666 -1.269000 0.581852 73.000000 5 266.834992
-1.137847 -1.321473 0.422552 73.000000 3 266.834995
-1.189404 -1.380862 0.256244 62.000000 1 266.834997
-0.880557 -1.020507 1.281241 64.000000 14 266.835005
-0.925906 -1.073059 1.115547 65.000000 12 266.835008
-0.970237 -1.124038 0.957827 67.000000 10 266.835010
-1.023846 -1.186141 0.811804 72.000000 8 266.835013
-1.071337 -1.240722 0.659354 75.000000 6 266.835015
-1.115333 -1.291218 0.502236 79.000000 4 266.835018
-1.165532 -1.348857 0.340534 72.000000 2 266.835020
-1.211919 -1.402045 0.168433 75.000000 0 266.835023
-0.039576 -0.031127 4.219113 30.000000 31 266.835034
-0.332320 -0.364644 3.136853 42.000000 28 266.835036
-0.407550 -0.446141 2.928607 40.000000 27 266.835039
-0.514340 -0.585621 2.537392 47.000000 25 266.835041
-0.600277 -0.691058 2.216034 55.000000 23 266.835044
-0.683524 -0.787160 1.977006 54.000000 21 266.835046
-0.749515 -0.863150 1.751582 54.000000 19 266.835049
-0.808410 -0.930969 1.552309 47.000000 17 266.835052
-0.162147 -0.161658 3.788060 37.000000 30 266.835059
-0.258366 -0.270472 3.440030 37.000000 29 266.835062
-0.463259 -0.520050 2.717119 48.000000 26 266.835064
-0.561900 -0.644608 2.379647 50.000000 24 266.835067
-0.640485 -0.735264 2.079138 63.000000 22 266.835070
-0.713598 -0.819475 1.847569 54.000000 20 266.835072
-0.775660 -0.890740 1.638206 57.000000 18 266.835075
-0.828974 -0.951958 1.446730 62.000000 16 266.835077
-0.861903 -0.995020 1.373429 60.000000 15 266.835035
-0.909372 -1.049815 1.201905 59.000000 13 266.835037
-0.954357 -1.101360 1.040076 62.000000 11 266.835040
-0.998961 -1.152830 0.884717 67.000000 9 266.835043
-1.051182 -1.212666 0.736720 71.000000 7 266.835045
-1.093946 -1.261554 0.580442 73.000000 5 266.835048
-1.139235 -1.313782 0.421620 73.000000 3 266.835050
-1.190953 -1.372940 0.255798 62.000000 1 266.835053
-0.884114 -1.017428 1.281241 64.000000 14 266.835061
-0.926994 -1.066769 1.112604 65.000000 12 266.835063
-0.971326 -1.117391 0.955295 68.000000 10 266.835066
-1.025002 -1.179134 0.809706 72.000000 8 266.835068
-1.072563 -1.233412 0.657711 58.000000 6 266.835071
-1.113453 -1.279983 0.499892 79.000000 4 266.835073
-1.163731 -1.337309 0.339155 69.000000 2 266.835076
-1.213525 -1.394038 0.168232 75.000000 0 266.835079
-0.039648 -0.030965 4.214113 30.000000 31 266.835089
-0.333065 -0.362909 3.131914 44.000000 28 266.835092
-0.409105 -0.444716 2.928607 40.000000 27 266.835094
-0.515392 -0.582703 2.532620 45.000000 25 266.835097
-0.601399 -0.687488 2.211431 55.000000 23 266.835099
-0.684691 -0.782966 1.972617 52.000000 21 266.835102
-0.750671 -0.858410 1.747450 54.000000 19 266.835105
-0.811654 -0.928141 1.552309 39.000000 17 266.835107
-0.162711 -0.161091 3.788060 37.000000 30 266.835115
-0.259309 -0.269569 3.440030 37.000000 29 266.835117
-0.464232 -0.517494 2.712280 49.000000 26 266.835120
-0.563008 -0.641346 2.374954 52.000000 24 266.835123
-0.641611 -0.731387 2.074637 61.000000 22 266.835125
-0.714735 -0.815019 1.843303 54.000000 20 266.835128
-0.778765 -0.888027 1.638206 57.000000 18 266.835130
-0.830056 -0.946509 1.443055 60.000000 16 266.835133
-0.863026 -0.989318 1.369925 62.000000 15 266.835090
-0.910472 -1.043701 1.198768 61.000000 13 266.835093
-0.958196 -1.098022 1.040076 64.000000 11 266.835096
-1.000067 -1.145998 0.882399 69.000000 9 266.835098
-1.052360 -1.205497 0.734847 71.000000 7 266.835101
-1.095187 -1.254115 0.579033 73.000000 5 266.835103
-1.140583 -1.306097 0.420687 72.000000 3 266.835106
-1.192462 -1.365024 0.255352 62.000000 1 266.835108
-0.885201 -1.011525 1.277916 64.000000 14 266.835116
-0.928051 -1.060485 1.109660 67.000000 12 266.835119
-0.972381 -1.110749 0.952762 67.000000 10 266.835121
-1.026122 -1.172134 0.807608 72.000000 8 266.835124
-1.076862 -1.229660 0.657711 32.000000 6 266.835126
-1.114711 -1.272432 0.498720 79.000000 4 266.835129
-1.165128 -1.329514 0.338465 71.000000 2 266.835131
-1.215091 -1.386037 0.168030 75.000000 0 266.835134
-0.039756 -0.030826 4.214113 30.000000 31 266.835145
-0.334329 -0.361745 3.131914 44.000000 28 266.835147
-0.409963 -0.442538 2.923711 40.000000 27 266.835150
-0.516429 -0.579786 2.527849 47.000000 25 266.835152
-0.603795 -0.685385 2.211431 51.000000 23 266.835155
-0.685836 -0.778773 1.968228 54.000000 21 266.835157
-0.753663 -0.855785 1.747450 54.000000 19 266.835160
-0.814889 -0.925302 1.552309 39.000000 17 266.835163
-0.163065 -0.160320 3.783068 37.000000 30 266.835170
-0.259876 -0.268279 3.435058 37.000000 29 266.835173
-0.465192 -0.514937 2.707441 49.000000 26 266.835175
-0.564101 -0.638084 2.370262 54.000000 24 266.835178
-0.642719 -0.727511 2.070136 60.000000 22 266.835181
-0.715849 -0.810564 1.839037 56.000000 20 266.835183
-0.779865 -0.883044 1.634216 59.000000 18 266.835186
-0.831111 -0.941065 1.439380 58.000000 16 266.835188
-0.866475 -0.986299 1.369925 62.000000 15 266.835146
-0.911540 -1.037592 1.195630 61.000000 13 266.835149
-0.959263 -1.091530 1.037334 64.000000 11 266.835151
-1.001136 -1.139172 0.880081 69.000000 9 266.835154
-1.053501 -1.198335 0.732974 71.000000 7 266.835156
-1.096390 -1.246682 0.577624 73.000000 5 266.835159
-1.138647 -1.294731 0.418822 72.000000 3 266.835161
-1.193930 -1.357114 0.254906 62.000000 1 266.835164
-0.886257 -1.005627 1.274591 66.000000 14 266.835172
-0.929074 -1.054206 1.106717 67.000000 12 266.835174
-0.976252 -1.107348 0.952762 67.000000 10 266.835177
-1.027206 -1.165141 0.805510 74.000000 8 266.835179
-1.078024 -1.222352 0.656068 19.000000 6 266.835182
-1.115930 -1.264888 0.497547 80.000000 4 266.835184
-1.163208 -1.318013 0.337085 69.000000 2 266.835187
-1.216615 -1.378042 0.167829 76.000000 0 266.835190
-0.039827 -0.030663 4.209113 30.000000 31 266.835200
-0.335060 -0.360007 3.126974 44.000000 28 266.835203
-0.411505 -0.441105 2.923711 40.000000 27 266.835205
-0.517452 -0.576868 2.523077 45.000000 25 266.835208
-0.604887 -0.681811 2.206829 51.000000 23 266.835210
-0.686961 -0.774582 1.963840 54.000000 21 266.835213
-0.754778 -0.851044 1.743317 56.000000 19 266.835216
-0.818114 -0.922452 1.552309 38.000000 17 266.835218
-0.163595 -0.159779 3.783068 37.000000 30 266.835226
-0.260764 -0.267416 3.435058 37.000000 29 266.835228
-0.466897 -0.513392 2.707441 49.000000 26 266.835231
-0.565066 -0.634920 2.365569 55.000000 24 266.835234
-0.643807 -0.723636 2.065635 60.000000 22 266.835236
-0.716941 -0.806112 1.834771 56.000000 20 266.835239
-0.780939 -0.878064 1.630227 59.000000 18 266.835241
-0.831974 -0.935770 1.435705 62.000000 16 266.835244
-0.867549 -0.980598 1.366420 62.000000 15 266.835201
-0.912577 -1.031488 1.192492 59.000000 13 266.835204
-0.960296 -1.085043 1.034593 65.000000 11 266.835207
-1.002170 -1.132353 0.877763 71.000000 9 266.835209
-1.054397 -1.191363 0.731101 71.000000 7 266.835212
-1.097338 -1.239447 0.576215 73.000000 5 266.835214
-1.139902 -1.287071 0.417889 72.000000 3 266.835217
-1.195358 -1.349211 0.254459 62.000000 1 266.835219
-0.887284 -0.999735 1.271266 67.000000 14 266.835227
-0.930065 -1.047934 1.103774 67.000000 12 266.835230
-0.977057 -1.100880 0.950230 67.000000 10 266.835232
-1.025039 -1.154939 0.801314 74.000000 8 266.835235
-1.078936 -1.215239 0.654426 19.000000 6 266.835237
-1.113663 -1.253912 0.495203 77.000000 4 266.835240
-1.164284 -1.310446 0.336395 69.000000 2 266.835243
-1.214540 -1.366531 0.167426 76.000000 0 266.835245
-0.039928 -0.030531 4.209113 30.000000 31 266.835256
-0.336252 -0.358894 3.126974 44.000000 28 266.835258
-0.412268 -0.438996 2.918816 40.000000 27 266.835261
-0.518361 -0.574040 2.518305 47.000000 25 266.835263
-0.607145 -0.679802 2.206829 56.000000 23 266.835266
-0.687930 -0.770513 1.959451 50.000000 21 266.835269
-0.755722 -0.846437 1.739184 56.000000 19 266.835271
-0.823304 -0.922125 1.556146 35.000000 17 266.835274
-0.163943 -0.159006 3.778077 37.000000 30 266.835281
-0.261321 -0.266124 3.430087 37.000000 29 266.835284
-0.467836 -0.510831 2.702601 48.000000 26 266.835287
-0.566127 -0.631659 2.360876 53.000000 24 266.835289
-0.646203 -0.721497 2.065635 61.000000 22 266.835292
-0.717870 -0.801786 1.830505 54.000000 20 266.835294
-0.781836 -0.873224 1.626237 58.000000 18 266.835297
-0.832974 -0.930335 1.432030 62.000000 16 266.835299
-0.868424 -0.975052 1.362916 62.000000 15 266.835257
-0.913403 -1.025549 1.189354 61.000000 13 266.835260
-0.961107 -1.078731 1.031851 65.000000 11 266.835262
-1.002973 -1.125716 0.875445 71.000000 9 266.835265
-1.055464 -1.184215 0.729228 71.000000 7 266.835267
-1.098466 -1.232028 0.574806 73.000000 5 266.835270
-1.140895 -1.279617 0.416957 72.000000 3 266.835272
-1.193196 -1.337806 0.253567 62.000000 1 266.835275
-0.888106 -0.994002 1.267941 67.000000 14 266.835283
-0.930842 -1.041830 1.100831 65.000000 12 266.835285
-0.978021 -1.094249 0.947698 67.000000 10 266.835288
-1.026040 -1.147970 0.799216 74.000000 8 266.835290
-1.080024 -1.207945 0.652783 23.000000 6 266.835293
-1.114793 -1.246394 0.494030 77.000000 4 266.835295
-1.162246 -1.298993 0.335016 66.000000 2 266.835298
-1.215971 -1.358561 0.167224 76.000000 0 266.835301
-0.040034 -0.030392 4.209113 30.000000 31 266.835311
-0.336969 -0.357153 3.122035 45.000000 28 266.835314
-0.413798 -0.437554 2.918816 40.000000 27 266.835316
-0.520362 -0.572227 2.518305 47.000000 25 266.835319
-0.608208 -0.676226 2.202226 55.000000 23 266.835321
-0.689014 -0.766325 1.955062 48.000000 21 266.835324
-0.756790 -0.841701 1.735051 54.000000 19 266.835326
-0.826518 -0.919246 1.556146 34.000000 17 266.835329
-0.164497 -0.158433 3.778077 37.000000 30 266.835337
-0.261872 -0.264831 3.425115 37.000000 29 266.835339
-0.468764 -0.508271 2.697762 49.000000 26 266.835342
-0.567173 -0.628398 2.356183 51.000000 24 266.835344
-0.647259 -0.717620 2.061135 60.000000 22 266.835347
-0.718918 -0.797339 1.826239 54.000000 20 266.835349
-0.782861 -0.868251 1.622248 58.000000 18 266.835352
-0.833947 -0.924904 1.428355 60.000000 16 266.835355
-0.869441 -0.969360 1.359411 62.000000 15 266.835312
-0.914378 -1.019457 1.186217 59.000000 13 266.835315
-0.962074 -1.072257 1.029110 65.000000 11 266.835317
-1.003938 -1.118911 0.873127 71.000000 9 266.835320
-1.056495 -1.177073 0.727355 71.000000 7 266.835323
-1.099554 -1.224617 0.573397 71.000000 5 266.835325
-1.142073 -1.271972 0.416024 72.000000 3 266.835328
-1.194531 -1.329928 0.253121 61.000000 1 266.835330
-0.889072 -0.988120 1.264617 66.000000 14 266.835338
-0.934473 -1.038574 1.100831 63.000000 12 266.835341
-0.978950 -1.087624 0.945165 66.000000 10 266.835343
-1.027004 -1.141008 0.797118 74.000000 8 266.835346
-1.077914 -1.197149 0.649497 38.000000 6 266.835348
-1.115884 -1.238884 0.492858 77.000000 4 266.835351
-1.163459 -1.291249 0.334326 66.000000 2 266.835353
-1.217361 -1.350597 0.167023 76.000000 0 266.835356
-0.040140 -0.030252 4.209113 30.000000 31 266.835367
-0.338214 -0.355975 3.122035 42.000000 28 266.835369
-0.414620 -0.435370 2.913921 40.000000 27 266.835372
-0.521347 -0.569306 2.513534 47.000000 25 266.835374
-0.609253 -0.672651 2.197623 56.000000 23 266.835377
-0.690076 -0.762140 1.950674 52.000000 21 266.835379
-0.757835 -0.836968 1.730918 54.000000 19 266.835382
-0.829721 -0.916355 1.556146 33.000000 17 266.835384
-0.165049 -0.157858 3.778077 37.000000 30 266.835392
-0.262795 -0.263916 3.425115 37.000000 29 266.835395
-0.470535 -0.506631 2.697762 48.000000 26 266.835397
-0.568202 -0.625137 2.351490 52.000000 24 266.835400
-0.648295 -0.713744 2.056634 58.000000 22 266.835402
-0.719944 -0.792894 1.821973 54.000000 20 266.835405
-0.783861 -0.863282 1.618258 57.000000 18 266.835408
-0.834891 -0.919477 1.424680 58.000000 16 266.835410
-0.870429 -0.963673 1.355907 62.000000 15 266.835368
-0.915322 -1.013370 1.183079 59.000000 13 266.835370
-0.963008 -1.065790 1.026368 65.000000 11 266.835373
-1.004867 -1.112112 0.870809 71.000000 9 266.835375
-1.054380 -1.166500 0.723609 73.000000 7 266.835378
-1.100605 -1.217213 0.571987 71.000000 5 266.835381
-1.143212 -1.264334 0.415091 72.000000 3 266.835383
-1.195825 -1.322057 0.252674 61.000000 1 266.835386
-0.890009 -0.982243 1.261292 62.000000 14 266.835393
-0.935379 -1.032311 1.097888 65.000000 12 266.835396
-0.979845 -1.081006 0.942633 67.000000 10 266.835399
-1.027933 -1.134054 0.795020 75.000000 8 266.835401
-1.078914 -1.189880 0.647855 63.000000 6 266.835404
-1.116936 -1.231381 0.491686 77.000000 4 266.835406
-1.164631 -1.283512 0.333636 66.000000 2 266.835409
-1.218710 -1.342640 0.166821 75.000000 0 266.835411
-0.040246 -0.030111 4.209113 30.000000 31 266.835422
-0.339454 -0.354792 3.122035 45.000000 28 266.835425
-0.415432 -0.433186 2.909026 40.000000 27 266.835427
-0.522319 -0.566385 2.508762 47.000000 25 266.835430
-0.610281 -0.669076 2.193021 56.000000 23 266.835432
-0.691118 -0.757956 1.946285 52.000000 21 266.835435
-0.758856 -0.832239 1.726785 56.000000 19 266.835437
-0.830755 -0.911085 1.552309 32.000000 17 266.835440
-0.165599 -0.157281 3.778077 37.000000 30 266.835448
-0.263336 -0.262620 3.420144 37.000000 29 266.835450
-0.471441 -0.504068 2.692923 48.000000 26 266.835453
-0.569215 -0.621877 2.346798 52.000000 24 266.835455
-0.649313 -0.709870 2.052133 63.000000 22 266.835458
-0.720947 -0.788451 1.817707 54.000000 20 266.835461
-0.784836 -0.858316 1.614269 57.000000 18 266.835463
-0.835808 -0.914055 1.421004 58.000000 16 266.835466
-0.871388 -0.957990 1.352402 62.000000 15 266.835423
-0.916234 -1.007289 1.179941 59.000000 13 266.835426
-0.963908 -1.059329 1.023627 65.000000 11 266.835428
-1.005761 -1.105321 0.868491 69.000000 9 266.835431
-1.055324 -1.159384 0.721736 73.000000 7 266.835434
-1.101617 -1.209817 0.570578 74.000000 5 266.835436
-1.144311 -1.256703 0.414159 72.000000 3 266.835439
-1.193725 -1.310512 0.251782 61.000000 1 266.835441
-0.890915 -0.976372 1.257967 62.000000 14 266.835449
-0.936252 -1.026054 1.094944 67.000000 12 266.835452
-0.980706 -1.074395 0.940100 66.000000 10 266.835454
-1.028826 -1.127107 0.792921 75.000000 8 266.835457
-1.079877 -1.182620 0.646212 76.000000 6 266.835459
-1.117950 -1.223886 0.490513 79.000000 4 266.835462
-1.165764 -1.275784 0.332946 67.000000 2 266.835464
-1.216648 -1.331003 0.166418 75.000000 0 266.835467
-0.040387 -0.029994 4.214113 30.000000 31 266.835478
-0.340691 -0.353605 3.122035 45.000000 28 266.835480
-0.416941 -0.431733 2.909026 40.000000 27 266.835483
-0.523276 -0.563464 2.503990 45.000000 25 266.835485
-0.611291 -0.665503 2.188418 56.000000 23 266.835488
-0.692140 -0.753774 1.941896 52.000000 21 266.835490
-0.761756 -0.829585 1.726785 56.000000 19 266.835493
-0.833930 -0.908179 1.552309 32.000000 17 266.835495
-0.165908 -0.156533 3.773085 37.000000 30 266.835503
-0.264205 -0.261746 3.420144 37.000000 29 266.835506
-0.473110 -0.502501 2.692923 49.000000 26 266.835508
-0.570105 -0.618717 2.342105 50.000000 24 266.835511
-0.650312 -0.705998 2.047632 60.000000 22 266.835513
-0.721929 -0.784011 1.813441 54.000000 20 266.835516
-0.785786 -0.853354 1.610279 57.000000 18 266.835519
-0.836538 -0.908784 1.417329 60.000000 16 266.835521
-0.872318 -0.952313 1.348898 62.000000 15 266.835479
-0.917115 -1.001214 1.176803 58.000000 13 266.835481
-0.964775 -1.052875 1.020886 65.000000 11 266.835484
-1.006620 -1.098537 0.866173 67.000000 9 266.835487
-1.056031 -1.152460 0.719863 75.000000 7 266.835489
-1.102381 -1.202621 0.569169 73.000000 5 266.835492
-1.145371 -1.249081 0.413226 74.000000 3 266.835494
-1.194926 -1.302667 0.251336 57.000000 1 266.835497
-0.891791 -0.970506 1.254642 64.000000 14 266.835505
-0.937093 -1.019803 1.092001 67.000000 12 266.835507
-0.981347 -1.067962 0.937568 66.000000 10 266.835510
-1.029487 -1.120347 0.790823 75.000000 8 266.835512
-1.077400 -1.172078 0.642927 76.000000 6 266.835515
-1.118712 -1.216594 0.489341 77.000000 4 266.835517
-1.166636 -1.268266 0.332256 66.000000 2 266.835520
-1.217672 -1.323285 0.166217 75.000000 0 266.835522
-0.040487 -0.029860 4.214113 30.000000 31 266.835533
-0.341320 -0.351916 3.117096 45.000000 28 266.835536
-0.417660 -0.429619 2.904130 40.000000 27 266.835538
-0.524122 -0.560635 2.499218 47.000000 25 266.835541
-0.613494 -0.663473 2.188418 56.000000 23 266.835543
-0.693009 -0.749716 1.937508 50.000000 21 266.835546
-0.762593 -0.824987 1.722652 56.000000 19 266.835548
-0.834761 -0.903054 1.548472 31.000000 17 266.835551
-0.166454 -0.155953 3.773085 37.000000 30 266.835559
-0.264736 -0.260448 3.415172 37.000000 29 266.835561
-0.473995 -0.499934 2.688084 51.000000 26 266.835564
-0.571088 -0.615458 2.337412 52.000000 24 266.835566
-0.651168 -0.702240 2.043131 58.000000 22 266.835569
-0.722751 -0.779700 1.809175 54.000000 20 266.835572
-0.788611 -0.850744 1.610279 56.000000 18 266.835574
-0.839705 -0.905859 1.417329 60.000000 16 266.835577
-0.873054 -0.946793 1.345393 62.000000 15 266.835534
-0.920430 -0.998167 1.176803 58.000000 13 266.835537
-0.965426 -1.046596 1.018144 67.000000 11 266.835539
-1.007254 -1.091937 0.863855 67.000000 9 266.835542
-1.056904 -1.145360 0.717990 73.000000 7 266.835545
-1.100065 -1.191715 0.566351 73.000000 5 266.835547
-1.142842 -1.238057 0.411361 72.000000 3 266.835550
-1.195861 -1.295039 0.250890 52.000000 1 266.835552
-0.892468 -0.964802 1.251317 64.000000 14 266.835560
-0.937725 -1.013723 1.089058 67.000000 12 266.835563
-0.982140 -1.061366 0.935036 66.000000 10 266.835565
-1.030309 -1.113415 0.788725 77.000000 8 266.835568
-1.078277 -1.164845 0.641284 74.000000 6 266.835570
-1.119649 -1.209115 0.488169 77.000000 4 266.835573
-1.167690 -1.260553 0.331567 67.000000 2 266.835575
-1.218888 -1.315362 0.166015 74.000000 0 266.835578
-0.040591 -0.029718 4.214113 25.000000 31 266.835589
-0.342546 -0.350722 3.117096 44.000000 28 266.835591
-0.418445 -0.427431 2.899235 40.000000 27 266.835594
-0.526075 -0.558802 2.499218 45.000000 25 266.835596
-0.614475 -0.659897 2.183816 56.000000 23 266.835599
-0.693990 -0.745539 1.933119 50.000000 21 266.835601
-0.763551 -0.820261 1.718519 56.000000 19 266.835604
-0.835724 -0.897788 1.544635 30.000000 17 266.835607
-0.166997 -0.155371 3.773085 36.000000 30 266.835614
-0.265644 -0.259522 3.415172 38.000000 29 266.835617
-0.474869 -0.497367 2.683245 51.000000 26 266.835619
-0.572054 -0.612200 2.332720 50.000000 24 266.835622
-0.652129 -0.698371 2.038630 58.000000 22 266.835625
-0.723689 -0.775266 1.804909 56.000000 20 266.835627
-0.789520 -0.845783 1.606290 56.000000 18 266.835630
-0.840549 -0.900444 1.413654 62.000000 16 266.835632
-0.873926 -0.941127 1.341888 62.000000 15 266.835590
-0.921260 -0.992096 1.173665 60.000000 13 266.835592
-0.966228 -1.040156 1.015403 67.000000 11 266.835595
-1.008044 -1.085168 0.861537 67.000000 9 266.835598
-1.057740 -1.138267 0.716117 73.000000 7 266.835600
-1.100952 -1.184354 0.564941 74.000000 5 266.835603
-1.143813 -1.230462 0.410428 72.000000 3 266.835605
-1.196983 -1.287209 0.250443 50.000000 1 266.835608
-0.893285 -0.958949 1.247992 64.000000 14 266.835616
-0.938503 -1.007486 1.086115 65.000000 12 266.835618
-0.982900 -1.054777 0.932503 65.000000 10 266.835621
-1.031095 -1.106492 0.786627 75.000000 8 266.835623
-1.079117 -1.157620 0.639641 74.000000 6 266.835626
-1.120548 -1.201645 0.486996 79.000000 4 266.835628
-1.168705 -1.252848 0.330877 67.000000 2 266.835631
-1.216655 -1.303794 0.165612 74.000000 0 266.835633
-0.040694 -0.029576 4.214113 25.000000 31 266.835644
-0.343223 -0.348971 3.112157 44.000000 28 266.835647
-0.419934 -0.425968 2.899235 40.000000 27 266.835649
-0.526995 -0.555878 2.494447 45.000000 25 266.835652
-0.615439 -0.656323 2.179213 56.000000 23 266.835654
-0.694949 -0.741364 1.928730 50.000000 21 266.835657
-0.764485 -0.815538 1.714386 58.000000 19 266.835659
-0.836660 -0.892527 1.540798 30.000000 17 266.835662
-0.167325 -0.154592 3.768094 37.000000 30 266.835670
-0.266164 -0.258222 3.410201 37.000000 29 266.835672
-0.476602 -0.495707 2.683245 49.000000 26 266.835675
-0.573005 -0.608943 2.328027 52.000000 24 266.835677
-0.653071 -0.694504 2.034129 58.000000 22 266.835680
-0.724605 -0.770835 1.800644 56.000000 20 266.835683
-0.790403 -0.840826 1.602300 56.000000 18 266.835685
-0.841365 -0.895034 1.409979 62.000000 16 266.835688
-0.874771 -0.935466 1.338384 58.000000 15 266.835645
-0.922058 -0.986030 1.170528 60.000000 13 266.835648
-0.966996 -1.033724 1.012661 67.000000 11 266.835651
-1.008800 -1.078408 0.859219 67.000000 9 266.835653
-1.058539 -1.131183 0.714244 75.000000 7 266.835656
-1.101801 -1.177002 0.563532 73.000000 5 266.835658
-1.144744 -1.222876 0.409496 72.000000 3 266.835661
-1.194661 -1.275753 0.249551 55.000000 1 266.835663
-0.894072 -0.953101 1.244668 60.000000 14 266.835671
-0.939248 -1.001256 1.083172 65.000000 12 266.835674
-0.983626 -1.048196 0.929971 65.000000 10 266.835676
-1.031845 -1.099576 0.784529 73.000000 8 266.835679
-1.079919 -1.150403 0.637999 73.000000 6 266.835681
-1.121409 -1.194183 0.485824 77.000000 4 266.835684
-1.166290 -1.241542 0.329497 67.000000 2 266.835686
-1.217778 -1.295898 0.165410 76.000000 0 266.835689
-0.040797 -0.029434 4.214113 30.000000 31 266.835700
-0.344439 -0.347771 3.112157 41.000000 28 266.835702
-0.420701 -0.423777 2.894340 40.000000 27 266.835705
-0.527901 -0.552955 2.489675 44.000000 25 266.835707
-0.616385 -0.652750 2.174611 56.000000 23 266.835710
-0.697533 -0.738933 1.928730 48.000000 21 266.835712
-0.765395 -0.810818 1.710253 58.000000 19 266.835715
-0.839770 -0.889601 1.540798 29.000000 17 266.835718
-0.167863 -0.154007 3.768094 37.000000 30 266.835725
-0.267064 -0.257292 3.410201 37.000000 29 266.835728
-0.477454 -0.493137 2.678405 51.000000 26 266.835730
-0.575127 -0.606939 2.328027 48.000000 24 266.835733
-0.655492 -0.692221 2.034129 58.000000 22 266.835736
-0.727291 -0.768301 1.800644 54.000000 20 266.835738
-0.791261 -0.835873 1.598311 58.000000 18 266.835741
-0.842154 -0.889630 1.406304 60.000000 16 266.835743
-0.875586 -0.929810 1.334879 58.000000 15 266.835701
-0.925495 -0.982806 1.170528 62.000000 13 266.835703
-0.967731 -1.027298 1.009920 68.000000 11 266.835706
-1.009520 -1.071655 0.856901 67.000000 9 266.835709
-1.059302 -1.124107 0.712371 75.000000 7 266.835711
-1.102612 -1.169658 0.562123 73.000000 5 266.835714
-1.145636 -1.215298 0.408563 72.000000 3 266.835716
-1.195690 -1.267952 0.249105 57.000000 1 266.835719
-0.894829 -0.947260 1.241343 62.000000 14 266.835727
-0.939962 -0.995032 1.080229 65.000000 12 266.835729
-0.984318 -1.041622 0.927438 67.000000 10 266.835732
-1.032560 -1.092669 0.782431 73.000000 8 266.835734
-1.080684 -1.143194 0.636356 73.000000 6 266.835737
-1.125570 -1.190261 0.485824 77.000000 4 266.835739
-1.167213 -1.233866 0.328807 66.000000 2 266.835742
-1.218860 -1.288011 0.165209 75.000000 0 266.835745
-0.040900 -0.029292 4.214113 30.000000 31 266.835755
-0.345102 -0.346017 3.107217 41.000000 28 266.835758
-0.421457 -0.421586 2.889445 40.000000 27 266.835760
-0.528792 -0.550033 2.484903 44.000000 25 266.835763
-0.618659 -0.650595 2.174611 56.000000 23 266.835765
-0.698457 -0.734758 1.924342 50.000000 21 266.835768
-0.766282 -0.806102 1.706120 60.000000 19 266.835771
-0.840662 -0.884341 1.536961 29.000000 17 266.835773
-0.168185 -0.153226 3.763102 37.000000 30 266.835781
-0.267960 -0.256358 3.410201 37.000000 29 266.835783
-0.478295 -0.490567 2.673566 51.000000 26 266.835786
-0.576051 -0.603680 2.323334 50.000000 24 266.835789
-0.656401 -0.688352 2.029629 58.000000 22 266.835791
-0.728169 -0.763870 1.796378 54.000000 20 266.835794
-0.792094 -0.830924 1.594321 58.000000 18 266.835796
-0.842915 -0.884231 1.402629 58.000000 16 266.835799
-0.876372 -0.924160 1.331375 62.000000 15 266.835756
-0.926241 -0.976745 1.167390 56.000000 13 266.835759
-0.968434 -1.020880 1.007178 67.000000 11 266.835762
-1.010206 -1.064911 0.854583 67.000000 9 266.835764
-1.060028 -1.117040 0.710498 73.000000 7 266.835767
-1.103385 -1.162323 0.560714 74.000000 5 266.835769
-1.146489 -1.207729 0.407630 70.000000 3 266.835772
-1.196679 -1.260159 0.248659 55.000000 1 266.835774
-0.898131 -0.944131 1.241343 64.000000 14 266.835782
-0.940644 -0.988817 1.077286 65.000000 12 266.835785
-0.984976 -1.035057 0.924906 67.000000 10 266.835787
-1.033239 -1.085770 0.780333 73.000000 8 266.835790
-1.081411 -1.135995 0.634713 73.000000 6 266.835792
-1.126366 -1.182805 0.484652 79.000000 4 266.835795
-1.168097 -1.226198 0.328118 67.000000 2 266.835797
-1.219902 -1.280132 0.165007 75.000000 0 266.835800
-0.041002 -0.029149 4.214113 30.000000 31 266.835811
-0.345757 -0.344262 3.102278 44.000000 28 266.835813
-0.422203 -0.419396 2.884549 38.000000 27 266.835816
-0.529670 -0.547111 2.480132 44.000000 25 266.835818
-0.619575 -0.647020 2.170008 58.000000 23 266.835821
-0.701018 -0.732315 1.924342 52.000000 21 266.835823
-0.769091 -0.803422 1.706120 60.000000 19 266.835826
-0.841527 -0.879085 1.533124 29.000000 17 266.835829
-0.168719 -0.152638 3.763102 37.000000 30 266.835836
-0.268466 -0.255054 3.405230 38.000000 29 266.835839
-0.479123 -0.487997 2.668727 48.000000 26 266.835841
-0.576959 -0.600421 2.318641 48.000000 24 266.835844
-0.657291 -0.684486 2.025128 58.000000 22 266.835847
-0.729025 -0.759442 1.792112 54.000000 20 266.835849
-0.794990 -0.828154 1.594321 56.000000 18 266.835852
-0.843648 -0.878838 1.398953 60.000000 16 266.835854
-0.877130 -0.918517 1.327870 62.000000 15 266.835812
-0.926956 -0.970690 1.164252 56.000000 13 266.835815
-0.969103 -1.014470 1.004437 67.000000 11 266.835817
-1.010857 -1.058174 0.852265 67.000000 9 266.835820
-1.060718 -1.109982 0.708625 73.000000 7 266.835822
-1.104120 -1.154996 0.559305 74.000000 5 266.835825
-1.147303 -1.200169 0.406698 67.000000 3 266.835827
-1.197629 -1.252375 0.248212 55.000000 1 266.835830
-0.898837 -0.938293 1.238018 64.000000 14 266.835838
-0.941293 -0.982608 1.074342 65.000000 12 266.835840
-0.985600 -1.028500 0.922373 67.000000 10 266.835843
-1.033883 -1.078880 0.778235 73.000000 8 266.835845
-1.082102 -1.128804 0.633071 72.000000 6 266.835848
-1.127124 -1.175358 0.483479 79.000000 4 266.835850
-1.168942 -1.218540 0.327428 64.000000 2 266.835853
-1.220904 -1.272261 0.164806 75.000000 0 266.835856
-0.041103 -0.029005 4.214113 30.000000 31 266.835866
-0.346403 -0.342507 3.097339 45.000000 28 266.835869
-0.423665 -0.417919 2.884549 38.000000 27 266.835871
-0.530534 -0.544189 2.475360 44.000000 25 266.835874
-0.620474 -0.643447 2.165406 58.000000 23 266.835876
-0.701907 -0.728139 1.919953 50.000000 21 266.835879
-0.769938 -0.798706 1.701987 60.000000 19 266.835882
-0.842365 -0.873834 1.529287 29.000000 17 266.835884
-0.169034 -0.151855 3.758110 37.000000 30 266.835892
-0.269354 -0.254115 3.405230 38.000000 29 266.835894
-0.479938 -0.485427 2.663888 48.000000 26 266.835897
-0.579051 -0.598403 2.318641 48.000000 24 266.835900
-0.658163 -0.680622 2.020627 61.000000 22 266.835902
-0.729859 -0.755018 1.787846 54.000000 20 266.835905
-0.795781 -0.823207 1.590332 54.000000 18 266.835907
-0.844355 -0.873450 1.395278 58.000000 16 266.835910
-0.877859 -0.912879 1.324366 58.000000 15 266.835867
-0.927641 -0.964642 1.161114 60.000000 13 266.835870
-0.969739 -1.008068 1.001695 66.000000 11 266.835873
-1.011473 -1.051447 0.849947 67.000000 9 266.835875
-1.061371 -1.102932 0.706752 71.000000 7 266.835878
-1.104818 -1.147679 0.557895 74.000000 5 266.835880
-1.144672 -1.189079 0.404833 69.000000 3 266.835883
-1.198539 -1.244600 0.247766 55.000000 1 266.835885
-0.899514 -0.932462 1.234693 64.000000 14 266.835893
-0.941911 -0.976408 1.071399 65.000000 12 266.835896
-0.986190 -1.021951 0.919841 65.000000 10 266.835898
-1.034491 -1.071999 0.776137 73.000000 8 266.835901
-1.082756 -1.121622 0.631428 72.000000 6 266.835903
-1.127843 -1.167920 0.482307 79.000000 4 266.835906
-1.169748 -1.210890 0.326738 64.000000 2 266.835909
-1.218394 -1.260807 0.164403 73.000000 0 266.835911
-0.041204 -0.028862 4.214113 31.000000 31 266.835922
-0.347042 -0.340752 3.092400 45.000000 28 266.835924
-0.424393 -0.415726 2.879654 40.000000 27 266.835927
-0.531384 -0.541268 2.470588 44.000000 25 266.835929
-0.621355 -0.639876 2.160803 56.000000 23 266.835932
-0.702776 -0.723965 1.915564 50.000000 21 266.835935
-0.770761 -0.793995 1.697854 60.000000 19 266.835937
-0.843177 -0.868588 1.525450 30.000000 17 266.835940
-0.169563 -0.151264 3.758110 37.000000 30 266.835947
-0.269849 -0.252809 3.400258 37.000000 29 266.835950
-0.480742 -0.482858 2.659049 49.000000 26 266.835953
-0.579932 -0.595142 2.313948 48.000000 24 266.835955
-0.659015 -0.676760 2.016126 60.000000 22 266.835958
-0.730670 -0.750597 1.783580 54.000000 20 266.835960
-0.796547 -0.818265 1.586342 58.000000 18 266.835963
-0.845034 -0.868068 1.391603 58.000000 16 266.835965
-0.878559 -0.907247 1.320861 58.000000 15 266.835923
-0.928294 -0.958602 1.157977 60.000000 13 266.835926
-0.970343 -1.001673 0.998954 66.000000 11 266.835928
-1.012054 -1.044728 0.847629 67.000000 9 266.835931
-1.061989 -1.095891 0.704879 71.000000 7 266.835933
-1.105479 -1.140371 0.556486 74.000000 5 266.835936
-1.145397 -1.181549 0.403900 67.000000 3 266.835938
-1.199409 -1.236834 0.247320 55.000000 1 266.835941
-0.900162 -0.926638 1.231368 64.000000 14 266.835949
-0.942497 -0.970215 1.068456 65.000000 12 266.835951
-0.986747 -1.015410 0.917309 67.000000 10 266.835954
-1.035064 -1.065127 0.774039 73.000000 8 266.835956
-1.083373 -1.114450 0.629785 72.000000 6 266.835959
-1.128525 -1.160491 0.481135 78.000000 4 266.835961
-1.170515 -1.203250 0.326048 64.000000 2 266.835964
-1.219303 -1.252965 0.164201 72.000000 0 266.835967
-0.041305 -0.028718 4.214113 31.000000 31 266.835978
-0.348229 -0.339539 3.092400 45.000000 28 266.835981
-0.425842 -0.414242 2.879654 40.000000 27 266.835983
-0.532220 -0.538348 2.465816 44.000000 25 266.835986
-0.622219 -0.636307 2.156201 56.000000 23 266.835988
-0.703624 -0.719794 1.911176 50.000000 21 266.835991
-0.771561 -0.789287 1.693721 58.000000 19 266.835993
-0.843963 -0.863347 1.521614 30.000000 17 266.835996
-0.169873 -0.150481 3.753119 37.000000 30 266.836004
-0.270730 -0.251866 3.400258 37.000000 29 266.836006
-0.481534 -0.480289 2.654210 51.000000 26 266.836009
-0.580797 -0.591883 2.309256 50.000000 24 266.836011
-0.661374 -0.674456 2.016126 57.000000 22 266.836014
-0.731460 -0.746179 1.779314 56.000000 20 266.836016
-0.797289 -0.813327 1.582353 56.000000 18 266.836019
-0.845685 -0.862692 1.387928 58.000000 16 266.836022
-0.879231 -0.901622 1.317357 60.000000 15 266.835979
-0.928917 -0.952569 1.154839 60.000000 13 266.835982
-0.970914 -0.995287 0.996212 67.000000 11 266.835984
-1.012601 -1.038017 0.845311 66.000000 9 266.835987
-1.062570 -1.088859 0.703006 71.000000 7 266.835990
-1.106102 -1.133072 0.555077 71.000000 5 266.835992
-1.146083 -1.174028 0.402967 67.000000 3 266.835995
-1.200240 -1.229077 0.246874 55.000000 1 266.835997
-0.900780 -0.920821 1.228043 62.000000 14 266.836005
-0.943052 -0.964029 1.065513 65.000000 12 266.836008
-0.987270 -1.008878 0.914776 67.000000 10 266.836010
-1.038775 -1.061507 0.774039 71.000000 8 266.836013
-1.083953 -1.107286 0.628143 72.000000 6 266.836015
-1.129168 -1.153072 0.479962 77.000000 4 266.836018
-1.171242 -1.195619 0.325358 63.000000 2 266.836020
-1.220173 -1.245133 0.164000 73.000000 0 266.836023
-0.041405 -0.028573 4.214113 30.000000 31 266.836034
-0.348854 -0.337781 3.087460 45.000000 28 266.836036
-0.426552 -0.412046 2.874759 40.000000 27 266.836039
-0.534096 -0.536487 2.465816 44.000000 25 266.836041
-0.623066 -0.632739 2.151598 46.000000 23 266.836044
-0.704451 -0.715627 1.906787 50.000000 21 266.836046
-0.772337 -0.784584 1.689588 58.000000 19 266.836049
-0.842473 -0.855826 1.513940 30.000000 17 266.836051
-0.170397 -0.149887 3.753119 37.000000 30 266.836059
-0.271215 -0.250558 3.395287 37.000000 29 266.836062
-0.483208 -0.478605 2.654210 52.000000 26 266.836064
-0.581647 -0.588624 2.304563 50.000000 24 266.836067
-0.662194 -0.670593 2.011625 57.000000 22 266.836069
-0.732228 -0.741765 1.775048 56.000000 20 266.836072
-0.798006 -0.808394 1.578363 54.000000 18 266.836075
-0.848691 -0.859735 1.387928 58.000000 16 266.836077
-0.882372 -0.898547 1.317357 60.000000 15 266.836035
-0.929509 -0.946543 1.151701 60.000000 13 266.836037
-0.971452 -0.988909 0.993471 67.000000 11 266.836040
-1.013114 -1.031316 0.842993 66.000000 9 266.836042
-1.063115 -1.081837 0.701133 71.000000 7 266.836045
-1.106687 -1.125783 0.553668 71.000000 5 266.836048
-1.146730 -1.166518 0.402035 67.000000 3 266.836050
-1.201031 -1.221328 0.246428 55.000000 1 266.836053
-0.901368 -0.915011 1.224718 64.000000 14 266.836060
-0.943575 -0.957852 1.062570 65.000000 12 266.836063
-0.987759 -1.002355 0.912244 66.000000 10 266.836066
-1.039289 -1.054642 0.771941 71.000000 8 266.836068
-1.084496 -1.100133 0.626500 72.000000 6 266.836071
-1.129773 -1.145662 0.478790 78.000000 4 266.836073
-1.171931 -1.187998 0.324668 64.000000 2 266.836076
-1.221003 -1.237311 0.163798 73.000000 0 266.836078
-0.041504 -0.028429 4.214113 30.000000 31 266.836089
-0.350031 -0.336561 3.087460 46.000000 28 266.836092
-0.427988 -0.410555 2.874759 40.000000 27 266.836094
-0.534908 -0.533565 2.461045 45.000000 25 266.836097
-0.623895 -0.629173 2.146996 46.000000 23 266.836099
-0.705258 -0.711462 1.902398 48.000000 21 266.836102
-0.773090 -0.779885 1.685455 60.000000 19 266.836104
-0.843198 -0.850604 1.510103 30.000000 17 266.836107
-0.170700 -0.149102 3.748127 37.000000 30 266.836115
-0.272088 -0.249610 3.395287 37.000000 29 266.836117
-0.483978 -0.476033 2.649370 51.000000 26 266.836120
-0.582481 -0.585367 2.299870 48.000000 24 266.836122
-0.662995 -0.666734 2.007124 57.000000 22 266.836125
-0.732974 -0.737355 1.770782 54.000000 20 266.836128
-0.798698 -0.803466 1.574374 54.000000 18 266.836130
-0.849297 -0.854363 1.384253 58.000000 16 266.836133
-0.882996 -0.892926 1.313852 60.000000 15 266.836090
-0.932807 -0.943293 1.151701 62.000000 13 266.836093
-0.974898 -0.985512 0.993471 67.000000 11 266.836095
-1.016708 -1.027773 0.842993 66.000000 9 266.836098
-1.066885 -1.078120 0.701133 67.000000 7 266.836101
-1.107235 -1.118504 0.552259 71.000000 5 266.836103
-1.147339 -1.159017 0.401102 67.000000 3 266.836106
-1.201783 -1.213590 0.245981 55.000000 1 266.836108
-0.901926 -0.909207 1.221394 62.000000 14 266.836116
-0.944066 -0.951683 1.059627 65.000000 12 266.836119
-0.991252 -0.998901 0.912244 67.000000 10 266.836121
-1.039767 -1.047786 0.769843 70.000000 8 266.836124
-1.085003 -1.092989 0.624857 72.000000 6 266.836126
-1.130340 -1.138263 0.477618 78.000000 4 266.836129
-1.172580 -1.180387 0.323979 64.000000 2 266.836131
-1.218271 -1.225953 0.163395 73.000000 0 266.836134
-0.041565 -0.028262 4.209113 30.000000 31 266.836145
-0.350641 -0.334801 3.082521 46.000000 28 266.836147
-0.428681 -0.408356 2.869864 40.000000 27 266.836150
-0.535706 -0.530643 2.456273 45.000000 25 266.836152
-0.624707 -0.625609 2.142393 56.000000 23 266.836155
-0.706045 -0.707300 1.898010 44.000000 21 266.836157
-0.775808 -0.777181 1.685455 58.000000 19 266.836160
-0.841633 -0.843117 1.502429 31.000000 17 266.836162
-0.171219 -0.148505 3.748127 37.000000 30 266.836170
-0.272562 -0.248299 3.390315 37.000000 29 266.836173
-0.485637 -0.474341 2.649370 52.000000 26 266.836175
-0.584521 -0.583330 2.299870 48.000000 24 266.836178
-0.665318 -0.664415 2.007124 57.000000 22 266.836180
-0.735544 -0.734792 1.770782 56.000000 20 266.836183
-0.799365 -0.798543 1.570384 54.000000 18 266.836186
-0.849876 -0.848997 1.380578 58.000000 16 266.836188
-0.883591 -0.887311 1.310348 60.000000 15 266.836146
-0.933347 -0.937272 1.148563 62.000000 13 266.836148
-0.975381 -0.979140 0.990729 67.000000 11 266.836151
-1.017163 -1.021079 0.840675 66.000000 9 266.836154
-1.067369 -1.071105 0.699260 70.000000 7 266.836156
-1.107746 -1.111235 0.550849 69.000000 5 266.836159
-1.147910 -1.151526 0.400169 67.000000 3 266.836161
-1.202495 -1.205861 0.245535 57.000000 1 266.836164
-0.902455 -0.903412 1.218069 64.000000 14 266.836172
-0.944525 -0.945522 1.056684 65.000000 12 266.836174
-0.991686 -0.992386 0.909711 67.000000 10 266.836177
-1.040210 -1.040940 0.767745 70.000000 8 266.836179
-1.085473 -1.085855 0.623215 72.000000 6 266.836182
-1.130870 -1.130873 0.476445 78.000000 4 266.836184
-1.173191 -1.172785 0.323289 61.000000 2 266.836187
-1.219009 -1.218162 0.163194 73.000000 0 266.836189
-0.041664 -0.028117 4.209113 30.000000 31 266.836200
-0.351243 -0.333041 3.077582 45.000000 28 266.836203
-0.429363 -0.406158 2.864969 40.000000 27 266.836205
-0.536490 -0.527723 2.451501 45.000000 25 266.836208
-0.626887 -0.623424 2.142393 56.000000 23 266.836210
-0.708510 -0.704831 1.898010 44.000000 21 266.836213
-0.776521 -0.772484 1.681322 62.000000 19 266.836215
-0.840025 -0.835652 1.494755 36.000000 17 266.836218
-0.171737 -0.147906 3.748127 38.000000 30 266.836226
-0.273427 -0.247347 3.390315 38.000000 29 266.836228
-0.486387 -0.471768 2.644531 52.000000 26 266.836231
-0.585328 -0.580072 2.295177 48.000000 24 266.836233
-0.666087 -0.660555 2.002624 59.000000 22 266.836236
-0.736253 -0.730383 1.766516 56.000000 20 266.836239
-0.800008 -0.793625 1.566395 52.000000 18 266.836241
-0.850427 -0.843638 1.376902 58.000000 16 266.836244
-0.884158 -0.881703 1.306843 58.000000 15 266.836201
-0.933857 -0.931260 1.145425 60.000000 13 266.836204
-0.975831 -0.972778 0.987988 67.000000 11 266.836206
-1.017583 -1.014395 0.838357 67.000000 9 266.836209
-1.067818 -1.064101 0.697387 70.000000 7 266.836212
-1.108219 -1.103975 0.549440 66.000000 5 266.836214
-1.148443 -1.144045 0.399237 67.000000 3 266.836217
-1.203168 -1.198143 0.245089 57.000000 1 266.836219
-0.902955 -0.897623 1.214744 64.000000 14 266.836227
-0.944954 -0.939370 1.053740 63.000000 12 266.836230
-0.992086 -0.985879 0.907179 67.000000 10 266.836232
-1.040618 -1.034103 0.765647 70.000000 8 266.836235
-1.085906 -1.078731 0.621572 72.000000 6 266.836237
-1.131361 -1.123494 0.475273 78.000000 4 266.836240
-1.173763 -1.165194 0.322599 63.000000 2 266.836242
-1.219708 -1.210380 0.162992 73.000000 0 266.836245
-0.041761 -0.027971 4.209113 31.000000 31 266.836256
-0.352404 -0.331813 3.077582 45.000000 28 266.836258
-0.430036 -0.403960 2.860073 40.000000 27 266.836261
-0.537260 -0.524804 2.446729 45.000000 25 266.836263
-0.627669 -0.619859 2.137791 55.000000 23 266.836266
-0.709261 -0.700670 1.893621 50.000000 21 266.836268
-0.777211 -0.767791 1.677189 62.000000 19 266.836271
-0.838375 -0.828209 1.487081 38.000000 17 266.836274
-0.172005 -0.147149 3.743136 38.000000 30 266.836281
-0.273848 -0.246082 3.385344 37.000000 29 266.836284
-0.487043 -0.469280 2.639692 52.000000 26 266.836286
-0.587248 -0.578128 2.295177 48.000000 24 266.836289
-0.666837 -0.656698 1.998123 59.000000 22 266.836292
-0.736940 -0.725979 1.762250 56.000000 20 266.836294
-0.800626 -0.788713 1.562405 54.000000 18 266.836297
-0.850806 -0.838434 1.373227 60.000000 16 266.836299
-0.887230 -0.878611 1.306843 60.000000 15 266.836257
-0.934336 -0.925255 1.142288 62.000000 13 266.836259
-0.979221 -0.969366 0.987988 67.000000 11 266.836262
-1.017969 -1.007720 0.836038 67.000000 9 266.836265
-1.068046 -1.057292 0.695514 70.000000 7 266.836267
-1.108464 -1.096920 0.548031 64.000000 5 266.836270
-1.148937 -1.136574 0.398304 67.000000 3 266.836272
-1.203802 -1.190434 0.244643 55.000000 1 266.836275
-0.906083 -0.894466 1.214744 64.000000 14 266.836283
-0.948227 -0.936066 1.053740 63.000000 12 266.836285
-0.992281 -0.979555 0.904646 67.000000 10 266.836288
-1.040811 -1.027458 0.763549 72.000000 8 266.836290
-1.086116 -1.071807 0.619929 74.000000 6 266.836293
-1.131620 -1.116323 0.474101 77.000000 4 266.836295
-1.174095 -1.157818 0.321909 63.000000 2 266.836298
-1.220157 -1.202822 0.162791 72.000000 0 266.836300
-0.041854 -0.027832 4.209113 31.000000 31 266.836311
-0.352934 -0.330112 3.072643 46.000000 28 266.836314
-0.430628 -0.401838 2.855178 40.000000 27 266.836316
-0.538997 -0.523019 2.446729 47.000000 25 266.836319
-0.628326 -0.616407 2.133188 56.000000 23 266.836321
-0.709871 -0.696636 1.889232 52.000000 21 266.836324
-0.777744 -0.763238 1.673056 60.000000 19 266.836326
-0.836541 -0.820933 1.479407 42.000000 17 266.836329
-0.172518 -0.146548 3.743136 37.000000 30 266.836337
-0.274705 -0.245125 3.385344 37.000000 29 266.836339
-0.487769 -0.466707 2.634853 51.000000 26 266.836342
-0.588028 -0.574868 2.290485 50.000000 24 266.836344
-0.667454 -0.652961 1.993622 59.000000 22 266.836347
-0.739343 -0.723531 1.762250 56.000000 20 266.836350
-0.801083 -0.783945 1.558416 54.000000 18 266.836352
-0.853727 -0.835459 1.373227 60.000000 16 266.836355
-0.887596 -0.873163 1.303338 60.000000 15 266.836312
-0.934624 -0.919422 1.139150 62.000000 13 266.836315
-0.979449 -0.963181 0.985246 67.000000 11 266.836318
-1.018147 -1.001232 0.833720 67.000000 9 266.836320
-1.071730 -1.053557 0.695514 70.000000 7 266.836323
-1.108864 -1.089682 0.546622 68.000000 5 266.836325
-1.149196 -1.129315 0.397372 67.000000 3 266.836328
-1.204190 -1.182945 0.244197 55.000000 1 266.836330
-0.906377 -0.888842 1.211419 64.000000 14 266.836338
-0.948440 -0.930086 1.050797 63.000000 12 266.836341
-0.992616 -0.973067 0.902114 58.000000 10 266.836343
-1.041151 -1.020642 0.761451 72.000000 8 266.836346
-1.086478 -1.064704 0.618286 73.000000 6 266.836348
-1.132038 -1.108964 0.472929 80.000000 4 266.836351
-1.174591 -1.150248 0.321219 61.000000 2 266.836353
-1.220778 -1.195060 0.162589 71.000000 0 266.836356
-0.041951 -0.027686 4.209113 31.000000 31 266.836367
-0.354084 -0.328878 3.072643 45.000000 28 266.836369
-0.432028 -0.400332 2.855178 40.000000 27 266.836372
-0.539744 -0.520098 2.441958 47.000000 25 266.836374
-0.629075 -0.612846 2.128586 56.000000 23 266.836377
-0.710583 -0.692482 1.884844 50.000000 21 266.836379
-0.780403 -0.760519 1.673056 62.000000 19 266.836382
-0.837105 -0.815771 1.475570 54.000000 17 266.836385
-0.173028 -0.145945 3.743136 37.000000 30 266.836392
-0.275159 -0.243811 3.380373 37.000000 29 266.836395
-0.489395 -0.465002 2.634853 49.000000 26 266.836397
-0.588793 -0.571610 2.285792 48.000000 24 266.836400
-0.668168 -0.649109 1.989121 59.000000 22 266.836403
-0.739994 -0.719128 1.757984 58.000000 20 266.836405
-0.801653 -0.779044 1.554426 54.000000 18 266.836408
-0.854207 -0.830111 1.369552 60.000000 16 266.836410
-0.888088 -0.867568 1.299834 58.000000 15 266.836368
-0.937827 -0.916154 1.139150 62.000000 13 266.836370
-0.979813 -0.956835 0.982505 68.000000 11 266.836373
-1.021635 -0.997672 0.833720 67.000000 9 266.836376
-1.072084 -1.046572 0.693640 70.000000 7 266.836378
-1.109228 -1.082454 0.545213 69.000000 5 266.836381
-1.149615 -1.121866 0.396439 67.000000 3 266.836383
-1.204748 -1.175257 0.243750 55.000000 1 266.836386
-0.906799 -0.883067 1.208094 62.000000 14 266.836394
-0.948785 -0.923950 1.047854 63.000000 12 266.836396
-0.992917 -0.966589 0.899582 44.000000 10 266.836399
-1.041455 -1.013836 0.759353 70.000000 8 266.836401
-1.090187 -1.060905 0.618286 73.000000 6 266.836404
-1.132418 -1.101617 0.471756 78.000000 4 266.836406
-1.175049 -1.142688 0.320530 59.000000 2 266.836409
-1.221360 -1.187310 0.162387 73.000000 0 266.836412
-0.042047 -0.027540 4.209113 31.000000 31 266.836422
-0.354659 -0.327114 3.067703 45.000000 28 266.836425
-0.432673 -0.398133 2.850283 40.000000 27 266.836427
-0.541556 -0.518211 2.441958 45.000000 25 266.836430
-0.631210 -0.610647 2.128586 56.000000 23 266.836432
-0.711274 -0.688331 1.880455 48.000000 21 266.836435
-0.781031 -0.755833 1.668923 60.000000 19 266.836438
-0.837644 -0.810614 1.471733 56.000000 17 266.836440
