# .PCD v.7 - Point Cloud Data file format
VERSION .7
FIELDS x y z normal_x normal_y normal_z
SIZE 4 4 4 4 2 4
TYPE F F F F U F
COUNT 1 1 1 1 1 1
WIDTH 927
HEIGHT 1
VIEWPOINT 0 0 0 1 0 0 0
POINTS 927
DATA ascii
-1.688171 3.818556 2.538061 38.000000 10 291.068225
-1.639217 3.707829 1.961537 48.000000 8 291.068227
-1.595937 3.611636 1.462627 61.000000 6 291.068230
-1.555400 3.521563 1.019228 69.000000 4 291.068232
-1.513961 3.429361 0.614391 69.000000 2 291.068235
-1.480291 3.354678 0.241589 82.000000 0 291.068238
-0.010047 0.041365 3.324147 91.000000 31 291.068248
-0.357671 0.872797 5.996684 96.000000 28 291.068251
-0.471065 1.153241 6.012600 82.000000 27 291.068253
-0.758907 1.757672 6.163902 10.000000 25 291.068256
-1.031837 2.353887 6.114372 8.000000 23 291.068258
-1.327036 3.025903 6.119902 10.000000 21 291.068261
-2.064006 4.706368 7.620369 11.000000 19 291.068263
-1.986229 4.529024 5.995492 63.000000 17 291.068266
-0.067491 0.189509 3.308866 94.000000 30 291.068274
-0.236999 0.620225 6.139506 4.000000 29 291.068276
-0.619221 1.462570 6.148116 8.000000 26 291.068279
-0.898137 2.058634 6.162017 8.000000 24 291.068281
-1.170239 2.679800 6.107384 9.000000 22 291.068284
-2.002268 4.582979 8.250735 22.000000 20 291.068286
-1.794136 4.106589 6.006707 85.000000 18 291.068289
-1.929122 4.415566 5.301979 29.000000 16 291.068292
-1.861634 4.230866 4.622144 22.000000 15 291.068249
-1.791703 4.071941 3.668198 26.000000 13 291.068252
-1.724675 3.921467 2.893307 33.000000 11 291.068254
-1.671763 3.801163 2.259307 17.000000 9 291.068257
-1.615960 3.676022 1.710697 47.000000 7 291.068260
-1.574856 3.584215 1.239946 39.000000 5 291.068262
-1.535382 3.494376 0.816118 63.000000 3 291.068265
-1.495797 3.405900 0.426250 59.000000 1 291.068267
-1.826750 4.169339 4.133961 23.000000 14 291.068275
-1.759396 4.015618 3.275826 33.000000 12 291.068278
-1.692126 3.863917 2.563386 38.000000 10 291.068280
-1.642650 3.750945 1.980419 48.000000 8 291.068283
-1.596576 3.647468 1.474125 59.000000 6 291.068285
-1.556736 3.558142 1.027435 72.000000 4 291.068288
-1.515871 3.466386 0.619220 67.000000 2 291.068290
-1.480578 3.387291 0.242798 80.000000 0 291.068293
-0.009903 0.041400 3.324147 88.000000 31 291.068304
-0.354622 0.874040 5.996684 95.000000 28 291.068306
-0.467036 1.154878 6.012600 85.000000 27 291.068309
-0.752767 1.760310 6.163902 8.000000 25 291.068311
-1.022836 2.355683 6.109769 9.000000 23 291.068314
-1.316465 3.030516 6.119902 9.000000 21 291.068316
-2.044202 4.705802 7.607971 11.000000 19 291.068319
-1.978071 4.553572 6.018513 82.000000 17 291.068321
-0.066829 0.189743 3.308866 94.000000 30 291.068329
-0.235586 0.623047 6.159391 3.000000 29 291.068332
-0.614112 1.464723 6.148116 12.000000 26 291.068334
-0.890945 2.061756 6.162017 8.000000 24 291.068337
-1.160877 2.683869 6.107384 9.000000 22 291.068339
-1.985223 4.587547 8.246469 25.000000 20 291.068342
-1.780987 4.115593 6.010696 85.000000 18 291.068345
-1.935239 4.472054 5.360781 21.000000 16 291.068347
-1.869653 4.289647 4.678217 31.000000 15 291.068305
-1.794587 4.117425 3.702714 25.000000 13 291.068307
-1.727677 3.965797 2.920722 33.000000 11 291.068310
-1.690333 3.880083 2.301031 11.000000 9 291.068312
-1.617925 3.715644 1.725682 47.000000 7 291.068315
-1.573821 3.616083 1.248401 39.000000 5 291.068318
-1.534937 3.526739 0.821714 63.000000 3 291.068320
-1.495819 3.438500 0.428927 58.000000 1 291.068323
-1.828538 4.213373 4.170534 23.000000 14 291.068330
-1.763069 4.062522 3.308201 31.000000 12 291.068333
-1.695785 3.909351 2.588710 37.000000 10 291.068336
-1.649413 3.802456 2.003498 47.000000 8 291.068338
-1.598862 3.687681 1.487267 59.000000 6 291.068341
-1.557835 3.594774 1.035641 72.000000 4 291.068343
-1.515571 3.498921 0.623359 68.000000 2 291.068346
-1.482640 3.424531 0.244209 79.000000 0 291.068348
-0.009758 0.041434 3.324147 87.000000 31 291.068359
-0.351569 0.875272 5.996684 95.000000 28 291.068362
-0.463002 1.156501 6.012600 85.000000 27 291.068364
-0.746618 1.762927 6.163902 7.000000 25 291.068367
-1.015379 2.361033 6.114372 9.000000 23 291.068369
-1.305879 3.035093 6.119902 9.000000 21 291.068372
-2.025539 4.707738 7.599705 11.000000 19 291.068374
-1.965965 4.569284 6.030024 78.000000 17 291.068377
-0.066166 0.189975 3.308866 93.000000 30 291.068385
-0.233596 0.624366 6.164363 3.000000 29 291.068387
-0.608996 1.466858 6.148116 9.000000 26 291.068390
-0.883743 2.064854 6.162017 8.000000 24 291.068392
-1.151502 2.687905 6.107384 9.000000 22 291.068395
-1.975362 4.608831 8.272066 20.000000 20 291.068398
-1.766610 4.121785 6.010696 85.000000 18 291.068400
-1.939650 4.525523 5.415908 20.000000 16 291.068403
-1.874456 4.341985 4.727280 56.000000 15 291.068360
-1.798719 4.166553 3.740367 25.000000 13 291.068363
-1.730389 4.010196 2.948136 32.000000 11 291.068365
-1.680289 3.894095 2.305667 11.000000 9 291.068368
-1.621468 3.759581 1.742539 44.000000 7 291.068371
-1.572584 3.647987 1.256856 57.000000 5 291.068373
-1.536229 3.563653 0.828242 65.000000 3 291.068376
-1.497601 3.475715 0.432051 65.000000 1 291.068378
-1.825618 4.247177 4.197133 25.000000 14 291.068386
-1.764839 4.105786 3.337633 31.000000 12 291.068389
-1.700849 3.958820 2.616567 37.000000 10 291.068391
-1.652254 3.845720 2.022380 46.000000 8 291.068394
-1.600887 3.727954 1.500408 56.000000 6 291.068396
-1.558698 3.631455 1.043847 72.000000 4 291.068399
-1.517016 3.536047 0.628187 70.000000 2 291.068401
-1.482490 3.457236 0.245418 82.000000 0 291.068404
-0.009614 0.041468 3.324147 93.000000 31 291.068415
-0.348511 0.876494 5.996684 87.000000 28 291.068417
-0.458962 1.158110 6.012600 83.000000 27 291.068420
-0.739882 1.764145 6.159131 7.000000 25 291.068422
-1.007131 2.364563 6.114372 9.000000 23 291.068425
-1.295276 3.039633 6.119902 10.000000 21 291.068427
-2.005784 4.707015 7.587306 11.000000 19 291.068430
-1.948747 4.573170 6.026187 74.000000 17 291.068432
-0.065502 0.190205 3.308866 94.000000 30 291.068440
-0.128112 0.345162 3.385344 9.000000 29 291.068443
-0.603872 1.468975 6.148116 8.000000 26 291.068445
-0.876530 2.067926 6.162017 8.000000 24 291.068448
-1.141642 2.692107 6.107384 9.000000 22 291.068450
-1.752669 4.131007 6.014686 85.000000 18 291.068456
-1.944235 4.582536 5.474711 22.000000 16 291.068458
-1.850876 4.328828 4.706253 71.000000 15 291.068416
-1.802529 4.215759 3.778021 24.000000 13 291.068418
-1.732813 4.054663 2.975551 31.000000 11 291.068421
-1.682355 3.936601 2.326530 28.000000 9 291.068424
-1.622904 3.799325 1.757523 44.000000 7 291.068426
-1.574910 3.688750 1.268130 55.000000 5 291.068429
-1.538581 3.605403 0.835703 67.000000 3 291.068431
-1.498529 3.513246 0.435174 66.000000 1 291.068434
-1.840743 4.326000 4.266955 41.000000 14 291.068442
-1.767188 4.153140 3.370008 30.000000 12 291.068444
-1.703200 4.004700 2.641891 36.000000 10 291.068447
-1.654135 3.889338 2.041263 45.000000 8 291.068449
-1.601993 3.768565 1.513550 55.000000 6 291.068452
-1.558683 3.668459 1.052053 70.000000 4 291.068454
-1.517596 3.573491 0.633016 70.000000 2 291.068457
-1.484083 3.494578 0.246829 80.000000 0 291.068459
-0.009456 0.041460 3.319147 93.000000 31 291.068470
-0.345296 0.877766 5.996684 87.000000 28 291.068473
-0.454715 1.159785 6.012600 83.000000 27 291.068475
-0.733411 1.766845 6.159131 10.000000 25 291.068478
-0.999217 2.370039 6.118975 8.000000 23 291.068480
-1.283196 3.042153 6.115513 10.000000 21 291.068483
-1.985238 4.706556 7.574908 11.000000 19 291.068485
-1.933218 4.583235 6.030024 71.000000 17 291.068488
-0.064805 0.190444 3.308866 94.000000 30 291.068496
-0.126480 0.344626 3.375401 9.000000 29 291.068498
-0.598484 1.471178 6.148116 7.000000 26 291.068501
-0.868945 2.071125 6.162017 8.000000 24 291.068503
-1.132238 2.696076 6.107384 8.000000 22 291.068506
-1.425093 3.391785 6.087907 4.000000 20 291.068509
-1.738238 4.137099 6.014686 85.000000 18 291.068511
-1.951865 4.645553 5.540864 22.000000 16 291.068514
-1.823878 4.309309 4.678217 94.000000 15 291.068471
-1.805273 4.265357 3.815674 24.000000 13 291.068474
-1.735860 4.103347 3.005707 32.000000 11 291.068476
-1.679997 3.971302 2.342756 38.000000 9 291.068479
-1.625217 3.843677 1.774381 45.000000 7 291.068482
-1.576320 3.729849 1.279404 55.000000 5 291.068484
-1.539373 3.642425 0.842231 65.000000 3 291.068487
-1.499822 3.550569 0.438298 66.000000 1 291.068489
-1.844483 4.377136 4.310178 69.000000 14 291.068497
-1.768375 4.196531 3.399439 29.000000 12 291.068500
-1.707619 4.054327 2.669748 36.000000 10 291.068502
-1.658165 3.936916 2.062243 45.000000 8 291.068505
-1.605319 3.813307 1.528334 55.000000 6 291.068507
-1.559064 3.705239 1.060260 71.000000 4 291.068510
-1.518552 3.610721 0.637845 69.000000 2 291.068512
-1.484817 3.532233 0.248240 79.000000 0 291.068515
-0.009311 0.041493 3.319147 91.000000 31 291.068526
-0.342230 0.878966 5.996684 96.000000 28 291.068528
-0.450663 1.161365 6.012600 75.000000 27 291.068531
-0.727239 1.769395 6.159131 7.000000 25 291.068533
-0.990938 2.373513 6.118975 8.000000 23 291.068536
-1.271645 3.044403 6.111125 10.000000 21 291.068538
-1.965543 4.705667 7.562509 11.000000 19 291.068541
-1.915972 4.586997 6.026187 68.000000 17 291.068544
-0.064140 0.190669 3.308866 93.000000 30 291.068551
-0.125276 0.345065 3.375401 9.000000 29 291.068554
-0.593345 1.473258 6.148116 12.000000 26 291.068556
-0.861710 2.074146 6.162017 9.000000 24 291.068559
-1.123656 2.702022 6.111885 8.000000 22 291.068562
-1.409237 3.387107 6.070844 11.000000 20 291.068564
-1.724944 4.145924 6.018675 85.000000 18 291.068567
-1.952567 4.693029 5.588641 22.000000 16 291.068569
-1.807446 4.312360 4.674712 94.000000 15 291.068527
-1.808431 4.314716 3.853327 25.000000 13 291.068529
-1.737682 4.147949 3.033122 31.000000 11 291.068532
-1.681531 4.013917 2.363618 38.000000 9 291.068535
-1.627905 3.887812 1.791238 45.000000 7 291.068537
-1.578107 3.770732 1.290677 54.000000 5 291.068540
-1.541821 3.684028 0.849692 63.000000 3 291.068542
-1.500871 3.587942 0.441421 66.000000 1 291.068545
-1.852203 4.438689 4.363376 43.000000 14 291.068553
-1.770838 4.243711 3.431814 28.000000 12 291.068555
-1.710052 4.100052 2.695072 36.000000 10 291.068558
-1.661883 3.984567 2.083224 44.000000 8 291.068560
-1.606535 3.853757 1.541475 54.000000 6 291.068563
-1.561077 3.746552 1.069638 68.000000 4 291.068565
-1.519266 3.648001 0.642674 68.000000 2 291.068568
-1.485918 3.569681 0.249650 79.000000 0 291.068570
-0.009166 0.041525 3.319147 91.000000 31 291.068581
-0.339160 0.880155 5.996684 95.000000 28 291.068584
-0.446607 1.162931 6.012600 75.000000 27 291.068586
-0.721621 1.773306 6.163902 6.000000 25 291.068589
-0.982647 2.376957 6.118975 9.000000 23 291.068591
-1.260095 3.046609 6.106736 10.000000 21 291.068594
-1.945878 4.704698 7.550109 12.000000 19 291.068596
-1.901174 4.596620 6.030024 67.000000 17 291.068599
-0.063474 0.190892 3.308866 94.000000 30 291.068607
-0.124071 0.345500 3.375401 9.000000 29 291.068609
-0.588198 1.475320 6.148116 10.000000 26 291.068612
-0.854465 2.077141 6.162017 8.000000 24 291.068614
-1.115047 2.707942 6.116386 8.000000 22 291.068617
-1.399392 3.396829 6.079376 11.000000 20 291.068620
-1.710461 4.151920 6.018675 85.000000 18 291.068622
-1.952961 4.740566 5.636418 23.000000 16 291.068625
-1.792382 4.318643 4.674712 87.000000 15 291.068582
-1.812758 4.367743 3.894118 55.000000 13 291.068585
-1.739215 4.192612 3.060536 29.000000 11 291.068588
-1.684484 4.060683 2.386798 38.000000 9 291.068590
-1.632079 3.936295 1.809968 44.000000 7 291.068593
-1.581465 3.816104 1.303360 54.000000 5 291.068595
-1.542116 3.721154 0.856221 63.000000 3 291.068598
-1.501679 3.625366 0.444545 63.000000 1 291.068600
-1.856662 4.493446 4.409924 22.000000 14 291.068608
-1.774537 4.294695 3.467132 29.000000 12 291.068611
-1.712186 4.145844 2.720396 37.000000 10 291.068613
-1.665288 4.032293 2.104204 44.000000 8 291.068616
-1.609290 3.898629 1.556260 56.000000 6 291.068618
-1.560966 3.783431 1.077844 67.000000 4 291.068621
-1.519738 3.685329 0.647502 66.000000 2 291.068623
-1.486775 3.607179 0.251061 78.000000 0 291.068626
-0.009021 0.041557 3.319147 91.000000 31 291.068637
-0.336086 0.881333 5.996684 95.000000 28 291.068639
-0.442545 1.164483 6.012600 82.000000 27 291.068642
-0.715427 1.775814 6.163902 10.000000 25 291.068644
-0.974343 2.380373 6.118975 8.000000 23 291.068647
-1.247637 3.046555 6.097958 10.000000 21 291.068649
-1.927311 4.706254 7.541844 12.000000 19 291.068652
-1.885117 4.603228 6.030024 67.000000 17 291.068655
-0.062807 0.191112 3.308866 94.000000 30 291.068662
-0.122687 0.345428 3.370430 9.000000 29 291.068665
-0.583045 1.477365 6.148116 7.000000 26 291.068667
-0.847860 2.081709 6.166710 8.000000 24 291.068670
-1.105588 2.711818 6.116386 8.000000 22 291.068673
-1.387527 3.401693 6.079376 10.000000 20 291.068675
-1.695958 4.157866 6.018675 85.000000 18 291.068678
-1.955607 4.794440 5.691545 25.000000 16 291.068680
-1.781363 4.334768 4.685225 84.000000 15 291.068638
-1.818216 4.424454 3.938047 72.000000 13 291.068640
-1.738868 4.233468 3.085210 29.000000 11 291.068643
-1.688815 4.111617 2.412297 38.000000 9 291.068646
-1.634175 3.980565 1.826825 44.000000 7 291.068648
-1.582704 3.857106 1.314633 54.000000 5 291.068651
-1.544036 3.762870 0.863682 62.000000 3 291.068653
-1.504132 3.667446 0.448114 63.000000 1 291.068656
-1.860762 4.548288 4.456471 21.000000 14 291.068664
-1.777901 4.345755 3.502450 40.000000 12 291.068666
-1.715653 4.195692 2.748253 37.000000 10 291.068669
-1.668380 4.080090 2.125185 44.000000 8 291.068671
-1.611751 3.943566 1.571044 56.000000 6 291.068674
-1.562454 3.824854 1.087223 67.000000 4 291.068676
-1.521840 3.727289 0.653021 66.000000 2 291.068679
-1.489276 3.649352 0.252673 78.000000 0 291.068682
-0.008876 0.041588 3.319147 91.000000 31 291.068692
-0.333007 0.882501 5.996684 92.000000 28 291.068695
-0.438477 1.166020 6.012600 82.000000 27 291.068697
-0.709777 1.779688 6.168674 7.000000 25 291.068700
-0.966028 2.383759 6.118975 9.000000 23 291.068702
-1.236095 3.048671 6.093570 11.000000 21 291.068705
-1.907699 4.705129 7.529445 12.000000 19 291.068708
-1.869038 4.609780 6.030024 64.000000 17 291.068710
-0.062140 0.191330 3.308866 94.000000 30 291.068718
-0.121304 0.345350 3.365458 10.000000 29 291.068720
-0.577884 1.479391 6.148116 7.000000 26 291.068723
-0.841233 2.086256 6.171402 9.000000 24 291.068726
-1.096930 2.717680 6.120887 8.000000 22 291.068728
-1.379550 3.416188 6.096439 7.000000 20 291.068731
-1.681434 4.163760 6.018675 85.000000 18 291.068733
-1.940129 4.804381 5.695221 15.000000 16 291.068736
-1.821833 4.477650 3.978838 24.000000 13 291.068696
-1.739831 4.278246 3.112624 30.000000 11 291.068699
-1.691141 4.158525 2.435477 39.000000 9 291.068701
-1.635981 4.024898 1.843683 42.000000 7 291.068704
-1.585481 3.902608 1.327316 53.000000 5 291.068706
-1.543834 3.800094 0.870210 61.000000 3 291.068709
-1.504437 3.704974 0.451238 63.000000 1 291.068711
-1.861697 4.596289 4.496369 21.000000 14 291.068719
-1.780930 4.396891 3.537768 75.000000 12 291.068722
-1.715558 4.237621 2.771045 35.000000 10 291.068724
-1.671159 4.127957 2.146165 44.000000 8 291.068727
-1.615690 3.992944 1.587471 55.000000 6 291.068729
-1.563673 3.866333 1.096601 68.000000 4 291.068732
-1.521812 3.764718 0.657849 66.000000 2 291.068734
-1.489628 3.686953 0.254084 77.000000 0 291.068737
-0.008731 0.041619 3.319147 93.000000 31 291.068748
-0.329653 0.882930 5.991744 91.000000 28 291.068750
-0.434404 1.167544 6.012600 83.000000 27 291.068753
-0.703560 1.782154 6.168674 7.000000 25 291.068755
-0.957702 2.387117 6.118975 8.000000 23 291.068758
-1.225445 3.052968 6.093570 11.000000 21 291.068760
-1.888119 4.703925 7.517046 12.000000 19 291.068763
-1.852935 4.616276 6.030024 63.000000 17 291.068766
-0.061471 0.191546 3.308866 94.000000 30 291.068773
-0.120098 0.345771 3.365458 11.000000 29 291.068776
-0.572717 1.481399 6.148116 10.000000 26 291.068778
-0.833946 2.089180 6.171402 9.000000 24 291.068781
-1.088245 2.723514 6.125388 8.000000 22 291.068784
-1.858451 4.648777 8.259268 92.000000 20 291.068786
-1.666890 4.169604 6.018675 85.000000 18 291.068789
-1.925863 4.817420 5.702571 11.000000 16 291.068791
-1.825101 4.530924 4.019629 22.000000 13 291.068752
-1.734257 4.307567 3.129073 32.000000 11 291.068754
-1.693161 4.205499 2.458657 39.000000 9 291.068757
-1.639228 4.073591 1.862413 41.000000 7 291.068759
-1.587960 3.948176 1.339999 51.000000 5 291.068762
-1.545223 3.841920 0.877671 61.000000 3 291.068764
-1.506355 3.747168 0.454808 63.000000 1 291.068767
-1.865100 4.651285 4.542917 21.000000 14 291.068775
-1.785127 4.451852 3.576029 60.000000 12 291.068777
-1.716794 4.283601 2.796369 35.000000 10 291.068780
-1.673624 4.175893 2.167146 45.000000 8 291.068782
-1.617546 4.038014 1.602255 53.000000 6 291.068785
-1.566427 3.912379 1.107152 70.000000 4 291.068787
-1.523381 3.806789 0.663368 66.000000 2 291.068790
-1.491592 3.729239 0.255696 78.000000 0 291.068793
-0.008586 0.041649 3.319147 91.000000 31 291.068803
-0.326569 0.884076 5.991744 90.000000 28 291.068806
-0.430326 1.169053 6.012600 84.000000 27 291.068808
-0.697335 1.784600 6.168674 8.000000 25 291.068811
-0.950084 2.392261 6.123577 8.000000 23 291.068813
-1.213896 3.055000 6.089181 11.000000 21 291.068816
-1.868571 4.702642 7.504648 12.000000 19 291.068819
-1.836810 4.622716 6.030024 64.000000 17 291.068821
-0.060802 0.191759 3.308866 94.000000 30 291.068829
-0.118718 0.345683 3.360487 11.000000 29 291.068831
-0.567093 1.482214 6.143277 10.000000 26 291.068834
-0.827282 2.093683 6.176095 8.000000 24 291.068837
-1.078731 2.727297 6.125388 9.000000 22 291.068839
-1.843172 4.657662 8.263534 104.000000 20 291.068842
-1.653434 4.178200 6.022665 85.000000 18 291.068844
-1.915273 4.839874 5.720947 8.000000 16 291.068847
-1.915518 4.803699 5.161844 24.000000 15 291.068804
-1.828018 4.584274 4.060421 21.000000 13 291.068807
-1.745528 4.379627 3.175678 68.000000 11 291.068810
-1.696513 4.256653 2.484155 37.000000 9 291.068812
-1.642155 4.122356 1.881143 44.000000 7 291.068815
-1.591914 3.998265 1.354091 50.000000 5 291.068817
-1.546340 3.883801 0.885132 61.000000 3 291.068820
-1.509838 3.794048 0.458823 63.000000 1 291.068822
-1.858497 4.682064 4.566191 24.000000 14 291.068830
-1.788963 4.506895 3.614290 27.000000 12 291.068833
-1.709780 4.309605 2.809031 37.000000 10 291.068835
-1.675774 4.223896 2.188126 46.000000 8 291.068838
-1.620849 4.087535 1.618682 52.000000 6 291.068840
-1.568879 3.958491 1.117703 68.000000 4 291.068843
-1.526497 3.853521 0.669576 66.000000 2 291.068846
-1.493279 3.771584 0.257309 78.000000 0 291.068848
-0.008440 0.041678 3.319147 91.000000 31 291.068859
-0.323481 0.885210 5.991744 90.000000 28 291.068861
-0.426243 1.170548 6.012600 83.000000 27 291.068864
-0.691101 1.787023 6.168674 9.000000 25 291.068866
-0.941728 2.395563 6.123577 9.000000 23 291.068869
-1.203225 3.059219 6.089181 11.000000 21 291.068872
-1.848024 4.698660 7.488115 12.000000 19 291.068874
-1.820662 4.629100 6.030024 64.000000 17 291.068877
-0.060133 0.191970 3.308866 93.000000 30 291.068884
-0.117510 0.346095 3.360487 11.000000 29 291.068887
-0.561916 1.484185 6.143277 7.000000 26 291.068890
-0.819969 2.096558 6.176095 12.000000 24 291.068892
-1.069205 2.731045 6.125388 9.000000 22 291.068895
-1.824049 4.656782 8.250735 112.000000 20 291.068897
-1.638839 4.183946 6.022665 85.000000 18 291.068900
-1.902076 4.856000 5.731972 6.000000 16 291.068902
-1.902666 4.820308 5.172358 24.000000 15 291.068860
-1.832015 4.641322 4.104350 20.000000 13 291.068863
-1.753247 4.444038 3.216800 73.000000 11 291.068865
-1.697902 4.303760 2.507336 36.000000 9 291.068868
-1.644761 4.171191 1.899874 44.000000 7 291.068870
-1.593779 4.043966 1.366774 48.000000 5 291.068873
-1.548984 3.930305 0.893525 61.000000 3 291.068875
-1.511186 3.836363 0.462393 37.000000 1 291.068878
-1.868088 4.754561 4.629363 44.000000 14 291.068886
-1.793913 4.565781 3.655494 26.000000 12 291.068888
-1.718365 4.375741 2.847018 68.000000 10 291.068891
-1.677609 4.271965 2.209107 45.000000 8 291.068893
-1.622099 4.132731 1.633466 53.000000 6 291.068896
-1.571028 4.004668 1.128254 66.000000 4 291.068898
-1.527499 3.895709 0.675095 65.000000 2 291.068901
-1.494687 3.813986 0.258921 76.000000 0 291.068904
-0.008295 0.041708 3.319147 91.000000 31 291.068915
-0.320389 0.886334 5.991744 89.000000 28 291.068918
-0.422154 1.172029 6.012600 83.000000 27 291.068920
-0.684859 1.789424 6.168674 7.000000 25 291.068923
-0.934069 2.400656 6.128180 9.000000 23 291.068925
-1.192539 3.063400 6.089181 11.000000 21 291.068928
-1.831611 4.705082 7.488115 12.000000 19 291.068930
-1.805656 4.638414 6.033861 64.000000 17 291.068933
-0.059462 0.192179 3.308866 93.000000 30 291.068941
-0.116302 0.346503 3.360487 11.000000 29 291.068943
-0.556731 1.486137 6.143277 7.000000 26 291.068946
-0.813269 2.101017 6.180788 8.000000 24 291.068948
-1.059665 2.734761 6.125388 9.000000 22 291.068951
-1.806840 4.660689 8.246469 113.000000 20 291.068953
-1.625314 4.192451 6.026654 85.000000 18 291.068956
-1.896143 4.891058 5.765049 6.000000 16 291.068959
-1.881935 4.816955 5.161844 12.000000 15 291.068916
-1.827135 4.676696 4.129452 22.000000 13 291.068919
-1.759017 4.504662 3.255180 27.000000 11 291.068921
-1.698984 4.350928 2.530516 38.000000 9 291.068924
-1.647045 4.220093 1.918604 45.000000 7 291.068927
-1.597087 4.094199 1.380866 42.000000 5 291.068929
-1.551322 3.976876 0.901919 61.000000 3 291.068932
-1.510449 3.874093 0.465517 11.000000 1 291.068934
-1.859601 4.781935 4.649312 72.000000 14 291.068942
-1.797010 4.620988 3.693755 26.000000 12 291.068945
-1.724946 4.437970 2.882472 90.000000 10 291.068947
-1.677484 4.315867 2.227989 45.000000 8 291.068950
-1.624764 4.182388 1.649893 53.000000 6 291.068952
-1.572873 4.050907 1.138805 64.000000 4 291.068955
-1.530016 3.942568 0.681303 66.000000 2 291.068957
-1.495818 3.856443 0.260533 76.000000 0 291.068960
-0.008149 0.041736 3.319147 90.000000 31 291.068971
-0.317555 0.888179 5.996684 89.000000 28 291.068973
-0.418402 1.174454 6.017495 85.000000 27 291.068976
-0.678609 1.791804 6.168674 6.000000 25 291.068978
-0.925683 2.403902 6.128180 9.000000 23 291.068981
-1.182700 3.069780 6.093570 11.000000 21 291.068983
-1.816188 4.714073 7.492249 13.000000 19 291.068986
-1.789454 4.644689 6.033861 71.000000 17 291.068988
-0.058791 0.192385 3.308866 94.000000 30 291.068996
-0.115091 0.346907 3.360487 12.000000 29 291.068999
-0.551977 1.489251 6.148116 9.000000 26 291.069001
-0.805930 2.103843 6.180788 8.000000 24 291.069004
-1.049333 2.736410 6.120887 8.000000 22 291.069006
-1.790560 4.666968 8.246469 112.000000 20 291.069009
-1.610670 4.198099 6.026654 85.000000 18 291.069012
-1.876629 4.891317 5.757699 9.000000 16 291.069014
-1.863824 4.820168 5.158340 11.000000 15 291.068972
-1.827647 4.726616 4.167105 28.000000 13 291.068974
-1.764385 4.565378 3.293561 27.000000 11 291.068977
-1.699756 4.398155 2.553696 65.000000 9 291.068979
-1.649009 4.269062 1.937334 44.000000 7 291.068982
-1.600064 4.144502 1.394958 41.000000 5 291.068985
-1.553353 4.023510 0.910313 60.000000 3 291.068987
-1.511259 3.916511 0.469086 11.000000 1 291.068990
-1.840215 4.781427 4.642663 72.000000 14 291.068997
-1.802646 4.683817 3.737903 27.000000 12 291.069000
-1.729566 4.496273 2.915393 32.000000 10 291.069003
-1.675444 4.355584 2.244774 46.000000 8 291.069005
-1.627102 4.232113 1.666319 54.000000 6 291.069008
-1.576158 4.101744 1.150528 64.000000 4 291.069010
-1.532224 3.989491 0.687512 65.000000 2 291.069013
-1.498461 3.903617 0.262347 77.000000 0 291.069015
-0.008003 0.041765 3.319147 91.000000 31 291.069026
-0.314452 0.889282 5.996684 87.000000 28 291.069029
-0.414300 1.175908 6.017495 85.000000 27 291.069031
-0.672350 1.794162 6.168674 11.000000 25 291.069034
-0.917286 2.407119 6.128180 9.000000 23 291.069036
-1.171977 3.073890 6.093570 11.000000 21 291.069039
-1.774372 4.653903 6.037698 76.000000 17 291.069044
-0.058119 0.192589 3.308866 94.000000 30 291.069052
-0.113714 0.346799 3.355515 12.000000 29 291.069054
-0.546776 1.491169 6.148116 11.000000 26 291.069057
-0.798581 2.106643 6.180788 11.000000 24 291.069059
-1.039296 2.740237 6.120887 8.000000 22 291.069062
-1.772518 4.671061 8.242205 109.000000 20 291.069065
-1.595272 4.203974 6.026654 83.000000 18 291.069067
-1.853878 4.885484 5.742998 8.000000 16 291.069070
-1.838065 4.803329 5.133808 13.000000 15 291.069027
-1.830615 4.783867 4.211034 62.000000 13 291.069030
-1.767857 4.622281 3.329200 26.000000 11 291.069032
-1.704967 4.457854 2.583831 90.000000 9 291.069035
-1.650650 4.318095 1.956065 43.000000 7 291.069038
-1.602709 4.194876 1.409050 48.000000 5 291.069040
-1.556120 4.075067 0.919639 59.000000 3 291.069043
-1.511100 3.959246 0.472656 25.000000 1 291.069045
-1.820021 4.781159 4.636013 69.000000 14 291.069053
-1.789780 4.701725 3.746732 29.000000 12 291.069056
-1.733004 4.554965 2.948314 31.000000 10 291.069058
-1.673994 4.399872 2.263656 61.000000 8 291.069061
-1.628365 4.282190 1.682746 54.000000 6 291.069063
-1.576655 4.148385 1.161079 64.000000 4 291.069066
-1.533418 4.036745 0.693720 63.000000 2 291.069068
-1.500793 3.950857 0.264161 75.000000 0 291.069071
-0.007854 0.041837 3.324147 91.000000 31 291.069082
-0.311447 0.891162 6.001623 87.000000 28 291.069084
-0.409987 1.177418 6.017495 84.000000 27 291.069087
-0.665770 1.796614 6.168674 7.000000 25 291.069089
-0.908458 2.410465 6.128180 9.000000 23 291.069092
-1.160703 3.078164 6.093570 11.000000 21 291.069094
-1.758434 4.663374 6.041535 69.000000 17 291.069099
-0.057446 0.192791 3.308866 94.000000 30 291.069107
-0.112503 0.347194 3.355515 13.000000 29 291.069110
-0.541996 1.494251 6.152955 7.000000 26 291.069112
-0.791223 2.109418 6.180788 9.000000 24 291.069115
-1.028960 2.741810 6.116386 8.000000 22 291.069117
-1.756202 4.677220 8.242205 107.000000 20 291.069120
-1.580588 4.209517 6.026654 85.000000 18 291.069123
-1.835283 4.885257 5.735648 6.000000 16 291.069125
-1.814136 4.793357 5.116285 14.000000 15 291.069083
-1.811691 4.786904 4.207896 76.000000 13 291.069085
-1.770136 4.679573 3.364839 26.000000 11 291.069088
-1.708993 4.517941 2.613965 34.000000 9 291.069091
-1.650329 4.362855 1.972922 43.000000 7 291.069093
-1.603325 4.240830 1.421732 46.000000 5 291.069096
-1.559249 4.126426 0.928965 58.000000 3 291.069098
-1.513106 4.006426 0.476672 61.000000 1 291.069101
-1.803320 4.787484 4.636013 68.000000 14 291.069109
-1.801853 4.783596 3.805595 55.000000 12 291.069111
-1.736126 4.609100 2.978703 31.000000 10 291.069114
-1.684991 4.473354 2.297225 100.000000 8 291.069116
-1.629130 4.327342 1.697531 52.000000 6 291.069119
-1.580008 4.199083 1.172802 62.000000 4 291.069121
-1.537456 4.088161 0.700618 62.000000 2 291.069124
-1.502812 3.998160 0.265974 73.000000 0 291.069126
-0.007715 0.041863 3.324147 91.000000 31 291.069137
-0.308490 0.892190 6.001623 87.000000 28 291.069140
-0.406080 1.178771 6.017495 84.000000 27 291.069142
-0.660323 1.800214 6.173445 6.000000 25 291.069145
-0.900459 2.413464 6.128180 12.000000 23 291.069147
-1.150489 3.081996 6.093570 11.000000 21 291.069150
-1.742960 4.669180 6.041535 69.000000 17 291.069155
-0.056773 0.192990 3.308866 93.000000 30 291.069163
-0.111291 0.347584 3.355515 14.000000 29 291.069165
-0.537201 1.497317 6.157794 7.000000 26 291.069168
-0.783855 2.112167 6.180788 8.000000 24 291.069170
-1.019862 2.745207 6.116386 8.000000 22 291.069173
-1.740682 4.683018 8.242205 103.000000 20 291.069176
-1.566620 4.214736 6.026654 85.000000 18 291.069178
-1.815857 4.885279 5.728298 5.000000 16 291.069181
-1.791974 4.782649 5.098762 29.000000 15 291.069138
-1.797173 4.796531 4.211034 70.000000 13 291.069141
-1.759007 4.697164 3.373064 27.000000 11 291.069143
-1.714199 4.577518 2.644099 30.000000 9 291.069146
-1.649715 4.407665 1.989779 62.000000 7 291.069149
-1.605320 4.291333 1.435824 44.000000 5 291.069151
-1.562768 4.177582 0.938291 57.000000 3 291.069154
-1.515508 4.053404 0.480688 55.000000 1 291.069156
-1.786130 4.789938 4.632688 68.000000 14 291.069164
-1.785980 4.789544 3.805595 79.000000 12 291.069167
-1.739599 4.667651 3.011625 31.000000 10 291.069169
-1.688386 4.530242 2.322402 43.000000 8 291.069172
-1.628851 4.372831 1.712315 57.000000 6 291.069174
-1.582299 4.250125 1.184525 62.000000 4 291.069177
-1.540446 4.139915 0.707516 60.000000 2 291.069179
-1.504520 4.045525 0.267788 71.000000 0 291.069182
-0.007569 0.041890 3.324147 87.000000 31 291.069193
-0.305374 0.893261 6.001623 87.000000 28 291.069195
-0.401963 1.180182 6.017495 84.000000 27 291.069198
-0.654035 1.802508 6.173445 8.000000 25 291.069200
-0.892029 2.416592 6.128180 10.000000 23 291.069203
-1.139724 3.085994 6.093570 11.000000 21 291.069205
-1.425549 3.859934 6.115976 10.000000 19 291.069208
-1.727761 4.678243 6.045372 72.000000 17 291.069211
-0.056178 0.193466 3.313857 93.000000 30 291.069218
-0.110077 0.347971 3.355515 14.000000 29 291.069221
-0.531971 1.499183 6.157794 9.000000 26 291.069223
-0.776477 2.114890 6.180788 10.000000 24 291.069226
-1.010273 2.748750 6.116386 9.000000 22 291.069229
-1.723425 4.686618 8.237938 101.000000 20 291.069231
-1.552938 4.223007 6.030644 85.000000 18 291.069234
-1.795282 4.882041 5.717272 4.000000 16 291.069236
-1.770310 4.775500 5.084744 38.000000 15 291.069194
-1.779065 4.799125 4.207896 69.000000 13 291.069196
-1.764391 4.762090 3.414186 35.000000 11 291.069199
-1.718220 4.637479 2.674234 30.000000 9 291.069202
-1.660078 4.482956 2.019748 94.000000 7 291.069204
-1.605317 4.337402 1.448507 44.000000 5 291.069207
-1.565226 4.229080 0.947617 54.000000 3 291.069209
-1.520355 4.110047 0.485596 53.000000 1 291.069212
-1.768107 4.792641 4.629363 66.000000 14 291.069220
-1.769251 4.795750 3.805595 79.000000 12 291.069222
-1.741194 4.722235 3.042014 33.000000 10 291.069225
-1.692973 4.591465 2.349676 38.000000 8 291.069227
-1.626641 4.413939 1.725456 70.000000 6 291.069230
-1.584253 4.301232 1.196248 61.000000 4 291.069232
-1.544804 4.196387 0.715104 58.000000 2 291.069235
-1.507640 4.097639 0.269803 70.000000 0 291.069237
-0.007423 0.041916 3.324147 88.000000 31 291.069248
-0.302254 0.894322 6.001623 87.000000 28 291.069251
-0.398166 1.182543 6.022390 83.000000 27 291.069253
-0.648243 1.806186 6.178217 8.000000 25 291.069256
-0.883588 2.419691 6.128180 11.000000 23 291.069258
-1.128122 3.087703 6.089181 11.000000 21 291.069261
-1.413998 3.870173 6.124242 11.000000 19 291.069263
-1.712521 4.687257 6.049209 69.000000 17 291.069266
-0.055503 0.193661 3.313857 93.000000 30 291.069274
-0.109020 0.348863 3.360487 14.000000 29 291.069276
-0.526735 1.501031 6.157794 12.000000 26 291.069279
-0.769090 2.117588 6.180788 7.000000 24 291.069281
-1.000192 2.752434 6.116386 9.000000 22 291.069284
-1.705345 4.690452 8.233672 97.000000 20 291.069287
-1.537450 4.228671 6.030644 84.000000 18 291.069289
-1.773902 4.879030 5.706246 3.000000 16 291.069292
-1.751174 4.774953 5.077735 45.000000 15 291.069249
-1.760962 4.801650 4.204759 66.000000 13 291.069252
-1.759270 4.799627 3.436117 76.000000 11 291.069255
-1.723366 4.701683 2.706686 30.000000 9 291.069257
-1.665150 4.545312 2.044097 44.000000 7 291.069260
-1.601713 4.374513 1.458371 51.000000 5 291.069262
-1.566597 4.280920 0.956944 54.000000 3 291.069265
-1.522387 4.162363 0.490058 58.000000 1 291.069267
-1.747970 4.792072 4.622714 66.000000 14 291.069275
-1.748892 4.794608 3.799709 77.000000 12 291.069278
-1.735687 4.760988 3.062274 37.000000 10 291.069280
-1.696342 4.653072 2.376951 38.000000 8 291.069283
-1.634703 4.486428 1.750096 99.000000 6 291.069285
-1.585110 4.352682 1.207972 62.000000 4 291.069288
-1.546351 4.248556 0.722002 57.000000 2 291.069290
-1.508706 4.145128 0.271617 72.000000 0 291.069293
-0.007269 0.041943 3.324147 91.000000 31 291.069304
-0.298974 0.895423 6.001623 82.000000 28 291.069306
-0.393829 1.183994 6.022390 84.000000 27 291.069309
-0.642118 1.809957 6.182989 7.000000 25 291.069311
-0.874714 2.422914 6.128180 9.000000 23 291.069314
-1.116798 3.091817 6.089181 11.000000 21 291.069316
-1.396936 3.867389 6.111844 8.000000 19 291.069319
-1.696419 4.696517 6.053046 69.000000 17 291.069322
-0.054792 0.193863 3.313857 94.000000 30 291.069329
-0.107740 0.349260 3.360487 15.000000 29 291.069332
-0.521230 1.502952 6.157794 7.000000 26 291.069334
-0.761323 2.120393 6.180788 7.000000 24 291.069337
-0.991314 2.757958 6.120887 8.000000 22 291.069340
-1.688079 4.693921 8.229406 94.000000 20 291.069342
-1.522680 4.234012 6.030644 84.000000 18 291.069345
-1.753418 4.875623 5.695221 3.000000 16 291.069347
-1.732446 4.777987 5.074231 45.000000 15 291.069305
-1.742024 4.804413 4.201621 67.000000 13 291.069307
-1.740242 4.802113 3.433376 81.000000 11 291.069310
-1.712160 4.724628 2.715958 30.000000 9 291.069313
-1.670582 4.612409 2.070320 39.000000 7 291.069315
-1.603631 4.429974 1.473873 74.000000 5 291.069318
-1.566692 4.327933 0.965337 52.000000 3 291.069320
-1.524792 4.214481 0.494520 58.000000 1 291.069323
-1.729964 4.794632 4.619389 66.000000 14 291.069331
-1.730773 4.796881 3.796766 76.000000 12 291.069333
-1.730758 4.799464 3.082533 78.000000 10 291.069336
-1.697025 4.705928 2.400030 37.000000 8 291.069338
-1.641449 4.554305 1.773094 53.000000 6 291.069341
-1.579790 4.385627 1.215005 72.000000 4 291.069343
-1.546609 4.295863 0.728211 56.000000 2 291.069346
-1.508727 4.192938 0.273431 69.000000 0 291.069349
-0.007123 0.041968 3.324147 91.000000 31 291.069359
-0.295847 0.896462 6.001623 82.000000 28 291.069362
-0.389693 1.185362 6.022390 84.000000 27 291.069364
-0.636291 1.813597 6.187760 7.000000 25 291.069367
-0.866251 2.425952 6.128180 9.000000 23 291.069369
-1.105999 3.095697 6.089181 10.000000 21 291.069372
-1.680015 4.702410 6.053046 70.000000 17 291.069377
-0.054115 0.194053 3.313857 94.000000 30 291.069385
-0.106675 0.350145 3.365458 15.000000 29 291.069387
-0.516388 1.505952 6.162633 7.000000 26 291.069390
-0.753917 2.123037 6.180788 9.000000 24 291.069393
-0.981681 2.761402 6.120887 8.000000 22 291.069395
-1.669936 4.694871 8.220874 92.000000 20 291.069398
-1.508901 4.242141 6.034633 84.000000 18 291.069400
-1.731844 4.868937 5.680521 3.000000 16 291.069403
-1.713349 4.777292 5.067221 57.000000 15 291.069360
-1.722615 4.803136 4.195345 59.000000 13 291.069363
-1.722058 4.804222 3.430634 77.000000 11 291.069366
-1.715091 4.784791 2.746093 37.000000 9 291.069368
-1.673234 4.670583 2.092796 38.000000 7 291.069371
-1.605946 4.485226 1.489374 84.000000 5 291.069373
-1.566479 4.374997 0.973731 55.000000 3 291.069376
-1.528528 4.271356 0.499429 56.000000 1 291.069378
-1.710707 4.793607 4.612739 66.000000 14 291.069386
-1.712659 4.799086 3.793823 74.000000 12 291.069389
-1.715442 4.809536 3.085065 89.000000 10 291.069391
-1.695835 4.754570 2.421010 38.000000 8 291.069394
-1.649328 4.626731 1.797734 49.000000 6 291.069396
-1.590573 4.464374 1.233763 101.000000 4 291.069399
-1.546555 4.343222 0.734419 55.000000 2 291.069401
-1.509157 4.240540 0.275245 68.000000 0 291.069404
-0.006973 0.041949 3.319147 91.000000 31 291.069415
-0.292716 0.897489 6.001623 87.000000 28 291.069417
-0.385553 1.186715 6.022390 74.000000 27 291.069420
-0.629956 1.815807 6.187760 11.000000 25 291.069422
-0.857777 2.428961 6.128180 11.000000 23 291.069425
-1.095984 3.101797 6.093570 10.000000 21 291.069427
-1.666149 4.715481 7.417855 72.000000 19 291.069430
-1.664658 4.711268 6.056883 71.000000 17 291.069433
-0.053438 0.194241 3.313857 94.000000 30 291.069440
-0.105605 0.351027 3.370430 16.000000 29 291.069443
-0.511128 1.507745 6.162633 8.000000 26 291.069445
-0.747074 2.127284 6.185481 6.000000 24 291.069448
-0.972036 2.764812 6.120887 8.000000 22 291.069451
-1.650941 4.693291 8.208076 90.000000 20 291.069453
-1.494084 4.247382 6.034633 73.000000 18 291.069456
-1.710338 4.862160 5.665820 3.000000 16 291.069458
-1.695470 4.779881 5.063716 57.000000 15 291.069416
-1.704537 4.805450 4.192207 59.000000 13 291.069419
-1.703881 4.806262 3.427893 77.000000 11 291.069421
-1.708740 4.819978 2.762319 75.000000 9 291.069424
-1.675499 4.728833 2.115273 38.000000 7 291.069426
-1.615902 4.563159 1.511921 45.000000 5 291.069429
-1.564315 4.417482 0.981192 69.000000 3 291.069431
-1.530225 4.323612 0.503891 57.000000 1 291.069434
-1.691478 4.792507 4.606090 66.000000 14 291.069442
-1.694552 4.801223 3.790879 74.000000 12 291.069444
-1.697209 4.811429 3.082533 86.000000 10 291.069447
-1.694326 4.803262 2.441991 46.000000 8 291.069449
-1.652009 4.685905 1.817446 46.000000 6 291.069452
-1.595979 4.529496 1.249003 66.000000 4 291.069454
-1.546189 4.390634 0.740627 56.000000 2 291.069457
-1.510932 4.292908 0.277260 67.000000 0 291.069460
-0.006827 0.041973 3.319147 91.000000 31 291.069470
-0.289581 0.898505 6.001623 86.000000 28 291.069473
-0.381409 1.188053 6.022390 75.000000 27 291.069475
-0.623614 1.817995 6.187760 6.000000 25 291.069478
-0.848649 2.430096 6.123577 11.000000 23 291.069480
-1.085150 3.105604 6.093570 11.000000 21 291.069483
-1.646894 4.713299 7.405457 70.000000 19 291.069486
-1.648202 4.717051 6.056883 72.000000 17 291.069488
-0.052759 0.194426 3.313857 94.000000 30 291.069496
-0.104379 0.351393 3.370430 16.000000 29 291.069498
-0.505862 1.509520 6.162633 12.000000 26 291.069501
-0.739643 2.129879 6.185481 6.000000 24 291.069504
-0.962379 2.768188 6.120887 8.000000 22 291.069506
-1.632835 4.694098 8.199545 82.000000 20 291.069509
-1.480239 4.255418 6.038622 70.000000 18 291.069511
-1.692241 4.864899 5.662145 3.000000 16 291.069514
-1.677595 4.782406 5.060212 56.000000 15 291.069471
-1.685175 4.804024 4.185932 64.000000 13 291.069474
-1.685710 4.808235 3.425151 73.000000 11 291.069477
-1.690439 4.821733 2.760001 86.000000 9 291.069479
-1.672779 4.774028 2.132130 38.000000 7 291.069482
-1.626919 4.645742 1.535877 41.000000 5 291.069484
-1.576487 4.501731 0.997046 104.000000 3 291.069487
-1.534865 4.385333 0.509245 55.000000 1 291.069489
-1.672277 4.791330 4.599440 65.000000 14 291.069497
-1.675118 4.799477 3.784993 74.000000 12 291.069500
-1.678984 4.813253 3.080001 84.000000 10 291.069502
-1.689507 4.843429 2.458775 81.000000 8 291.069505
-1.654298 4.745154 1.837159 45.000000 6 291.069507
-1.602548 4.599299 1.265415 63.000000 4 291.069510
-1.542254 4.428741 0.745456 73.000000 2 291.069513
-1.510717 4.340621 0.279074 67.000000 0 291.069515
-0.006680 0.041997 3.319147 93.000000 31 291.069526
-0.286443 0.899511 6.001623 86.000000 28 291.069528
-0.377259 1.189378 6.022390 85.000000 27 291.069531
-0.617264 1.820161 6.187760 6.000000 25 291.069533
-0.840162 2.433043 6.123577 10.000000 23 291.069536
-1.075085 3.111637 6.097958 11.000000 21 291.069539
-1.629513 4.716360 7.401324 69.000000 19 291.069541
-1.632774 4.725805 6.060719 77.000000 17 291.069544
-0.052080 0.194609 3.313857 93.000000 30 291.069551
-0.103301 0.352268 3.375401 16.000000 29 291.069554
-0.500590 1.511277 6.162633 7.000000 26 291.069557
-0.732765 2.134080 6.190174 9.000000 24 291.069559
-0.953418 2.773590 6.125388 8.000000 22 291.069562
-1.613895 4.692371 8.186747 82.000000 20 291.069564
-1.466356 4.263409 6.042612 70.000000 18 291.069567
-1.673044 4.864365 5.654794 3.000000 16 291.069569
-1.659722 4.784863 5.056708 56.000000 15 291.069527
-1.667120 4.806200 4.182794 64.000000 13 291.069530
-1.667546 4.810139 3.422410 73.000000 11 291.069532
-1.673598 4.827604 2.760001 85.000000 9 291.069535
-1.669764 4.819263 2.148987 49.000000 7 291.069537
-1.623250 4.687659 1.547151 39.000000 5 291.069540
-1.580052 4.562909 1.008238 56.000000 3 291.069542
-1.522806 4.400075 0.510138 56.000000 1 291.069545
-1.654324 4.793608 4.596115 66.000000 14 291.069553
-1.657036 4.801475 3.782050 74.000000 12 291.069555
-1.659361 4.810933 3.074936 84.000000 10 291.069558
-1.675550 4.857878 2.462971 95.000000 8 291.069560
-1.648497 4.782152 1.848657 46.000000 6 291.069563
-1.605483 4.660012 1.279483 62.000000 4 291.069565
-1.552581 4.509016 0.756493 108.000000 2 291.069568
-1.510188 4.388383 0.280888 67.000000 0 291.069571
-0.006533 0.042020 3.319147 91.000000 31 291.069581
-0.283301 0.900505 6.001623 86.000000 28 291.069584
-0.373105 1.190687 6.022390 84.000000 27 291.069586
-0.610907 1.822304 6.187760 9.000000 25 291.069589
-0.831032 2.434113 6.118975 8.000000 23 291.069591
-1.064217 3.115371 6.097958 10.000000 21 291.069594
-1.612130 4.719356 7.397191 69.000000 19 291.069596
-1.616268 4.731476 6.060719 78.000000 17 291.069599
-0.051401 0.194790 3.313857 94.000000 30 291.069607
-0.102071 0.352627 3.375401 17.000000 29 291.069609
-0.495703 1.514210 6.167473 7.000000 26 291.069612
-0.725311 2.136625 6.190174 7.000000 24 291.069614
-0.943731 2.776901 6.125388 8.000000 22 291.069617
-1.594986 4.690568 8.173948 80.000000 20 291.069619
-1.452435 4.271356 6.046602 71.000000 18 291.069622
-1.653871 4.863756 5.647444 3.000000 16 291.069625
-1.641853 4.787255 5.053203 60.000000 15 291.069582
-1.647807 4.804625 4.176518 65.000000 13 291.069585
-1.649390 4.811975 3.419668 75.000000 11 291.069587
-1.655300 4.829225 2.757683 80.000000 9 291.069590
-1.657439 4.838219 2.154606 86.000000 7 291.069593
-1.628632 4.756838 1.566879 39.000000 5 291.069595
-1.586391 4.633461 1.021294 53.000000 3 291.069598
-1.521948 4.447772 0.514153 74.000000 1 291.069600
-1.635169 4.792285 4.589465 66.000000 14 291.069608
-1.638960 4.803404 3.779107 75.000000 12 291.069611
-1.641166 4.812616 3.072403 84.000000 10 291.069613
-1.654188 4.850810 2.456677 92.000000 8 291.069616
-1.650076 4.841518 1.868370 61.000000 6 291.069618
-1.611148 4.730001 1.295895 61.000000 4 291.069621
-1.555983 4.570663 0.764771 58.000000 2 291.069623
-1.510952 4.440925 0.282903 68.000000 0 291.069626
-0.006387 0.042042 3.319147 91.000000 31 291.069637
-0.280156 0.901488 6.001623 86.000000 28 291.069639
-0.368947 1.191982 6.022390 85.000000 27 291.069642
-0.604542 1.824426 6.187760 7.000000 25 291.069644
-0.822531 2.436999 6.118975 7.000000 23 291.069647
-1.054102 3.121337 6.102347 10.000000 21 291.069649
-1.593846 4.719622 7.388925 71.000000 19 291.069652
-1.598716 4.734052 6.056883 82.000000 17 291.069654
-0.050720 0.194968 3.313857 94.000000 30 291.069662
-0.100839 0.352981 3.375401 17.000000 29 291.069665
-0.490414 1.515932 6.167473 8.000000 26 291.069667
-0.717848 2.139143 6.190174 6.000000 24 291.069670
-0.934726 2.782243 6.129889 8.000000 22 291.069672
-1.576942 4.691163 8.165418 79.000000 20 291.069675
-1.437517 4.276399 6.046602 70.000000 18 291.069678
-1.634723 4.863072 5.640093 3.000000 16 291.069680
-1.622842 4.786202 5.046194 60.000000 15 291.069638
-1.628526 4.802975 4.170243 65.000000 13 291.069640
-1.629899 4.809783 3.414186 75.000000 11 291.069643
-1.637011 4.830778 2.755365 80.000000 9 291.069645
-1.640540 4.843975 2.154606 91.000000 7 291.069648
-1.615094 4.771582 1.569698 41.000000 5 291.069651
-1.589106 4.694805 1.032486 53.000000 3 291.069653
-1.511200 4.467208 0.515492 84.000000 1 291.069656
-1.617238 4.794425 4.586140 67.000000 14 291.069663
-1.619600 4.801435 3.773221 76.000000 12 291.069666
-1.622980 4.814230 3.069871 84.000000 10 291.069669
-1.637245 4.856555 2.456677 91.000000 8 291.069671
-1.633166 4.847248 1.868370 92.000000 6 291.069674
-1.613241 4.790874 1.309963 61.000000 4 291.069676
-1.562133 4.641777 0.774428 54.000000 2 291.069679
-1.511368 4.493526 0.284918 76.000000 0 291.069681
-0.006240 0.042064 3.319147 93.000000 31 291.069692
-0.277008 0.902461 6.001623 87.000000 28 291.069695
-0.364784 1.193263 6.022390 86.000000 27 291.069697
-0.598170 1.826525 6.187760 7.000000 25 291.069700
-0.814019 2.439855 6.118975 7.000000 23 291.069702
-1.043200 3.124997 6.102347 10.000000 21 291.069705
-1.576471 4.722487 7.384792 71.000000 19 291.069707
-1.582181 4.739604 6.056883 87.000000 17 291.069710
-0.050040 0.195144 3.313857 94.000000 30 291.069718
-0.099606 0.353331 3.375401 17.000000 29 291.069720
-0.485120 1.517634 6.167473 12.000000 26 291.069723
-0.709834 2.139998 6.185481 8.000000 24 291.069725
-0.925008 2.785488 6.129889 8.000000 22 291.069728
-1.558090 4.689214 8.152619 78.000000 20 291.069731
-1.423531 4.284251 6.050591 69.000000 18 291.069733
-1.616669 4.865531 5.636418 3.000000 16 291.069736
-1.604992 4.788456 5.042689 58.000000 15 291.069693
-1.609276 4.801247 4.163967 66.000000 13 291.069696
-1.611771 4.811478 3.411444 74.000000 11 291.069698
-1.618731 4.832263 2.753047 82.000000 9 291.069701
-1.622150 4.845275 2.152733 89.000000 7 291.069704
-1.622784 4.849981 1.592245 63.000000 5 291.069706
-1.589854 4.751566 1.042745 52.000000 3 291.069709
-1.497177 4.477180 0.515938 85.000000 1 291.069711
-1.598130 4.792956 4.579491 67.000000 14 291.069719
-1.601551 4.803226 3.770278 75.000000 12 291.069722
-1.604802 4.815776 3.067338 84.000000 10 291.069724
-1.618848 4.857935 2.454579 91.000000 8 291.069727
-1.619220 4.861880 1.871655 99.000000 6 291.069729
-1.599578 4.805699 1.312308 64.000000 4 291.069732
-1.563115 4.698890 0.782016 52.000000 2 291.069734
-1.511435 4.546182 0.286934 110.000000 0 291.069737
-0.006093 0.042086 3.319147 91.000000 31 291.069748
-0.273856 0.903422 6.001623 87.000000 28 291.069750
-0.360616 1.194529 6.022390 85.000000 27 291.069753
-0.591331 1.827181 6.182989 8.000000 25 291.069755
-0.805497 2.442681 6.118975 7.000000 23 291.069758
-1.032286 3.128620 6.102347 10.000000 21 291.069760
-1.557331 4.719944 7.372393 74.000000 19 291.069763
-1.564623 4.742053 6.053046 89.000000 17 291.069765
-0.049358 0.195317 3.313857 94.000000 30 291.069773
-0.098372 0.353676 3.375401 18.000000 29 291.069776
-0.479819 1.519318 6.167473 8.000000 26 291.069778
-0.702359 2.142463 6.185481 8.000000 24 291.069781
-0.915958 2.790770 6.134389 8.000000 22 291.069783
-1.540084 4.689668 8.144087 77.000000 20 291.069786
-1.408567 4.289194 6.050591 70.000000 18 291.069789
-1.598617 4.867924 5.632743 3.000000 16 291.069791
-1.587145 4.790644 5.039185 58.000000 15 291.069749
-1.591283 4.803141 4.160830 66.000000 13 291.069751
-1.593652 4.813105 3.408703 75.000000 11 291.069754
-1.600461 4.833678 2.750729 82.000000 9 291.069757
-1.605227 4.850909 2.152733 89.000000 7 291.069759
-1.604338 4.851061 1.590836 98.000000 5 291.069762
-1.587140 4.799061 1.051138 51.000000 3 291.069764
-1.479977 4.477650 0.515492 80.000000 1 291.069767
-1.580221 4.794959 4.576166 66.000000 14 291.069775
-1.582245 4.801109 3.764391 74.000000 12 291.069777
-1.586633 4.817253 3.064806 83.000000 10 291.069780
-1.600461 4.859245 2.452481 91.000000 8 291.069782
-1.600762 4.863017 1.870012 97.000000 6 291.069785
-1.591907 4.838957 1.319342 82.000000 4 291.069787
-1.563718 4.756067 0.789604 51.000000 2 291.069790
-1.512712 4.603639 0.289150 69.000000 0 291.069792
-0.005946 0.042107 3.319147 91.000000 31 291.069803
-0.270701 0.904373 6.001623 87.000000 28 291.069806
-0.356444 1.195780 6.022390 84.000000 27 291.069808
-0.584949 1.829234 6.182989 9.000000 25 291.069811
-0.796966 2.445478 6.118975 7.000000 23 291.069813
-1.021358 3.132204 6.102347 10.000000 21 291.069816
-1.540846 4.725352 7.372393 74.000000 19 291.069818
-1.548061 4.747486 6.053046 89.000000 17 291.069821
-0.048676 0.195488 3.313857 93.000000 30 291.069829
-0.097137 0.354018 3.375401 18.000000 29 291.069831
-0.474513 1.520984 6.167473 7.000000 26 291.069834
-0.694876 2.144902 6.185481 8.000000 24 291.069836
-0.906211 2.793950 6.134389 9.000000 22 291.069839
-1.522095 4.690054 8.135556 75.000000 20 291.069842
-1.394517 4.296951 6.054581 69.000000 18 291.069844
-1.580569 4.870250 5.629068 3.000000 16 291.069847
-1.568194 4.789376 5.032176 60.000000 15 291.069804
-1.572084 4.801267 4.154554 66.000000 13 291.069807
-1.574240 4.810690 3.403219 75.000000 11 291.069809
-1.580823 4.830813 2.746093 81.000000 9 291.069812
-1.586843 4.852076 2.150860 89.000000 7 291.069815
-1.587395 4.856632 1.590836 89.000000 5 291.069817
-1.576483 4.823249 1.054869 58.000000 3 291.069820
-1.464338 4.482789 0.515492 80.000000 1 291.069822
-1.562317 4.796894 4.572841 67.000000 14 291.069830
-1.564224 4.802759 3.761448 75.000000 12 291.069833
-1.567140 4.814564 3.059741 83.000000 10 291.069835
-1.582084 4.860486 2.450383 92.000000 8 291.069838
-1.580856 4.859593 1.866727 96.000000 6 291.069840
-1.582520 4.867598 1.325203 104.000000 4 291.069843
-1.554758 4.785045 0.793053 52.000000 2 291.069845
-1.512063 4.656407 0.291166 64.000000 0 291.069848
