# .PCD v.7 - Point Cloud Data file format
VERSION .7
FIELDS x y z normal_x normal_y normal_z
SIZE 4 4 4 4 2 4
TYPE F F F F U F
COUNT 1 1 1 1 1 1
WIDTH 907
HEIGHT 1
VIEWPOINT 0 0 0 1 0 0 0
POINTS 907
DATA ascii
-0.829737 -0.650844 1.470647 62.000000 18 378.438804
-0.886515 -0.695376 1.299724 69.000000 16 378.438806
-0.916043 -0.722419 1.226238 66.000000 15 378.438764
-0.965256 -0.761226 1.073256 67.000000 13 378.438767
-0.999973 -0.788321 0.919451 38.000000 11 378.438769
-1.041385 -0.820965 0.780406 60.000000 9 378.438772
-1.085712 -0.855602 0.646815 72.000000 7 378.438774
-1.123260 -0.884875 0.509983 61.000000 5 378.438777
-1.161473 -0.914977 0.372191 60.000000 3 378.438779
-1.212718 -0.955004 0.231256 51.000000 1 378.438782
-0.936376 -0.736072 1.141597 69.000000 14 378.438790
-0.977612 -0.768483 0.988991 70.000000 12 378.438792
-1.018373 -0.800237 0.846401 39.000000 10 378.438795
-1.060745 -0.833529 0.711097 74.000000 8 378.438797
-1.103416 -0.866748 0.577219 69.000000 6 378.438800
-1.146985 -0.900648 0.442448 71.000000 4 378.438802
-1.188011 -0.932528 0.302594 49.000000 2 378.438805
-1.230011 -0.965149 0.156745 70.000000 0 378.438808
-0.044683 -0.022922 4.204114 31.000000 31 378.438818
-0.378524 -0.281296 2.998554 51.000000 28 378.438821
-0.459253 -0.340456 2.771959 42.000000 27 378.438823
-0.574400 -0.443439 2.365610 53.000000 25 378.438826
-0.662985 -0.517634 2.041138 56.000000 23 378.438828
-0.742310 -0.579767 1.792682 56.000000 21 378.438831
-0.810003 -0.632633 1.582132 60.000000 19 378.438833
-0.868132 -0.678028 1.394994 62.000000 17 378.438836
-0.186003 -0.124893 3.703203 38.000000 30 378.438844
-0.295339 -0.208920 3.325687 39.000000 29 378.438846
-0.518229 -0.394306 2.542908 52.000000 26 378.438849
-0.620458 -0.482695 2.191936 54.000000 24 378.438851
-0.705850 -0.549512 1.912607 65.000000 22 378.438854
-0.775010 -0.603563 1.676932 66.000000 20 378.438856
-0.832004 -0.647944 1.470647 66.000000 18 378.438859
-0.886262 -0.690194 1.296049 71.000000 16 378.438862
-0.918559 -0.719217 1.226238 67.000000 15 378.438819
-0.964842 -0.755452 1.070119 66.000000 13 378.438822
-1.002718 -0.784826 0.919451 39.000000 11 378.438824
-1.040756 -0.814594 0.778088 62.000000 9 378.438827
-1.088692 -0.851807 0.646815 70.000000 7 378.438830
-1.126342 -0.880948 0.509983 62.000000 5 378.438832
-1.164660 -0.910917 0.372191 60.000000 3 378.438835
-1.212121 -0.947697 0.230810 51.000000 1 378.438837
-0.935996 -0.730501 1.138272 69.000000 14 378.438845
-0.977102 -0.762579 0.986048 70.000000 12 378.438848
-1.021160 -0.796677 0.846401 40.000000 10 378.438850
-1.060070 -0.827029 0.708999 74.000000 8 378.438853
-1.102711 -0.859987 0.575577 71.000000 6 378.438855
-1.150122 -0.896639 0.442448 71.000000 4 378.438858
-1.191259 -0.928375 0.302594 51.000000 2 378.438860
-1.229432 -0.957779 0.156543 70.000000 0 378.438863
-0.044723 -0.022749 4.199114 31.000000 31 378.438874
-0.379503 -0.279973 2.998554 51.000000 28 378.438876
-0.460439 -0.338850 2.771959 42.000000 27 378.438879
-0.574759 -0.440523 2.360838 53.000000 25 378.438881
-0.663243 -0.514120 2.036535 51.000000 23 378.438884
-0.744329 -0.577172 1.792682 56.000000 21 378.438886
-0.809983 -0.628077 1.577999 58.000000 19 378.438889
-0.867960 -0.673029 1.391157 60.000000 17 378.438891
-0.186438 -0.124243 3.703203 38.000000 30 378.438899
-0.296066 -0.207887 3.325687 39.000000 29 378.438902
-0.518598 -0.391737 2.538069 51.000000 26 378.438904
-0.622139 -0.480526 2.191936 54.000000 24 378.438907
-0.706040 -0.545713 1.908106 67.000000 22 378.438909
-0.775049 -0.599258 1.672666 66.000000 20 378.438912
-0.831876 -0.643192 1.466657 64.000000 18 378.438915
-0.885984 -0.685023 1.292374 71.000000 16 378.438917
-0.918249 -0.713818 1.222734 67.000000 15 378.438875
-0.964400 -0.749690 1.066981 66.000000 13 378.438877
-1.002150 -0.778756 0.916710 39.000000 11 378.438880
-1.043593 -0.810957 0.778088 62.000000 9 378.438882
-1.087998 -0.845158 0.644942 70.000000 7 378.438885
-1.125621 -0.874069 0.508574 62.000000 5 378.438888
-1.163952 -0.903834 0.371258 60.000000 3 378.438890
-1.215422 -0.943461 0.230810 51.000000 1 378.438893
-0.935588 -0.724942 1.134948 71.000000 14 378.438900
-0.976563 -0.756688 0.983104 71.000000 12 378.438903
-1.020527 -0.790468 0.843868 40.000000 10 378.438906
-1.062950 -0.823324 0.708999 73.000000 8 378.438908
-1.101972 -0.853241 0.573934 69.000000 6 378.438911
-1.149401 -0.889644 0.441276 71.000000 4 378.438913
-1.190575 -0.921181 0.301905 51.000000 2 378.438916
-1.232767 -0.953482 0.156543 70.000000 0 378.438918
-0.044802 -0.022593 4.199114 31.000000 31 378.438929
-0.379851 -0.278188 2.993614 50.000000 28 378.438932
-0.460796 -0.336641 2.767064 42.000000 27 378.438934
-0.575104 -0.437610 2.356067 53.000000 25 378.438937
-0.665034 -0.511801 2.036535 51.000000 23 378.438939
-0.746339 -0.574570 1.792682 58.000000 21 378.438942
-0.812170 -0.625246 1.577999 56.000000 19 378.438944
-0.867764 -0.668040 1.387320 60.000000 17 378.438947
-0.186870 -0.123591 3.703203 38.000000 30 378.438955
-0.296790 -0.206853 3.325687 39.000000 29 378.438957
-0.519962 -0.389924 2.538069 52.000000 26 378.438960
-0.623812 -0.478351 2.191936 54.000000 24 378.438962
-0.707941 -0.543245 1.908106 67.000000 22 378.438965
-0.775067 -0.594961 1.668400 64.000000 20 378.438968
-0.834116 -0.640284 1.466657 64.000000 18 378.438970
-0.888370 -0.681926 1.292374 71.000000 16 378.438973
-0.920735 -0.710608 1.222734 64.000000 15 378.438930
-0.967011 -0.746319 1.066981 66.000000 13 378.438933
-1.004862 -0.775253 0.916710 39.000000 11 378.438935
-1.042910 -0.804603 0.775770 66.000000 9 378.438938
-1.090941 -0.841355 0.644942 67.000000 7 378.438941
-1.124866 -0.867206 0.507164 61.000000 5 378.438943
-1.163210 -0.896766 0.370326 58.000000 3 378.438946
-1.214763 -0.936172 0.230364 50.000000 1 378.438948
-0.938113 -0.721672 1.134948 69.000000 14 378.438956
-0.979198 -0.753274 0.983104 71.000000 12 378.438959
-1.023280 -0.786901 0.843868 40.000000 10 378.438961
-1.062220 -0.816842 0.706901 71.000000 8 378.438964
-1.104944 -0.849389 0.573934 69.000000 6 378.438966
-1.148645 -0.882665 0.440104 73.000000 4 378.438969
-1.193784 -0.917019 0.301905 49.000000 2 378.438971
-1.232126 -0.946130 0.156342 69.000000 0 378.438974
-0.044881 -0.022436 4.199114 31.000000 31 378.438985
-0.380820 -0.276860 2.993614 50.000000 28 378.438987
-0.461968 -0.335031 2.767064 42.000000 27 378.438990
-0.576628 -0.435600 2.356067 55.000000 25 378.438992
-0.665264 -0.508291 2.031933 58.000000 23 378.438995
-0.746437 -0.570507 1.788293 54.000000 21 378.438997
-0.812112 -0.620698 1.573866 56.000000 19 378.439000
-0.870090 -0.665007 1.387320 58.000000 17 378.439002
-0.187300 -0.122938 3.703203 38.000000 30 378.439010
-0.297071 -0.205513 3.320716 39.000000 29 378.439013
-0.520311 -0.387356 2.533229 51.000000 26 378.439015
-0.624105 -0.475126 2.187244 58.000000 24 378.439018
-0.708101 -0.539451 1.903605 67.000000 22 378.439020
-0.777140 -0.592252 1.668400 64.000000 20 378.439023
-0.833949 -0.635542 1.462668 64.000000 18 378.439026
-0.888048 -0.676766 1.288698 69.000000 16 378.439028
-0.920379 -0.705221 1.219229 64.000000 15 378.438986
-0.966520 -0.740572 1.063843 66.000000 13 378.438988
-1.007562 -0.771740 0.916710 39.000000 11 378.438991
-1.045712 -0.800957 0.775770 66.000000 9 378.438994
-1.090190 -0.834723 0.643069 70.000000 7 378.438996
-1.127886 -0.863274 0.507164 61.000000 5 378.438999
-1.166333 -0.892700 0.370326 58.000000 3 378.439001
-1.214068 -0.928900 0.229918 48.000000 1 378.439004
-0.937659 -0.716126 1.131623 69.000000 14 378.439012
-0.978610 -0.747398 0.980161 71.000000 12 378.439014
-1.022594 -0.780708 0.841336 40.000000 10 378.439017
-1.061457 -0.810375 0.704803 73.000000 8 378.439019
-1.104148 -0.842662 0.572291 69.000000 6 378.439022
-1.147855 -0.875702 0.438931 69.000000 4 378.439024
-1.193040 -0.909843 0.301215 49.000000 2 378.439027
-1.235421 -0.941823 0.156342 69.000000 0 378.439029
-0.044959 -0.022280 4.199114 31.000000 31 378.439040
-0.381154 -0.275075 2.988675 50.000000 28 378.439043
-0.462308 -0.332822 2.762169 42.000000 27 378.439045
-0.576950 -0.432689 2.351295 53.000000 25 378.439048
-0.665478 -0.504785 2.027330 58.000000 23 378.439050
-0.748424 -0.567898 1.788293 54.000000 21 378.439053
-0.814274 -0.617860 1.573866 56.000000 19 378.439055
-0.869852 -0.660027 1.383484 60.000000 17 378.439058
-0.187728 -0.122284 3.703203 38.000000 30 378.439066
-0.297786 -0.204474 3.320716 39.000000 29 378.439068
-0.520648 -0.384790 2.528390 51.000000 26 378.439071
-0.625760 -0.472944 2.187244 58.000000 24 378.439073
-0.709979 -0.536976 1.903605 67.000000 22 378.439076
-0.777122 -0.587962 1.664134 62.000000 20 378.439079
-0.836162 -0.632627 1.462668 64.000000 18 378.439081
-0.890405 -0.673662 1.288698 69.000000 16 378.439084
-0.919996 -0.699845 1.215725 66.000000 15 378.439041
-0.969099 -0.737193 1.063843 67.000000 13 378.439044
-1.006922 -0.765688 0.913968 40.000000 11 378.439046
-1.044975 -0.794621 0.773452 69.000000 9 378.439049
-1.089407 -0.828107 0.641196 70.000000 7 378.439052
-1.127073 -0.856429 0.505755 59.000000 5 378.439054
-1.165531 -0.885652 0.369393 58.000000 3 378.439057
-1.213337 -0.921644 0.229472 48.000000 1 378.439059
-0.940153 -0.712849 1.131623 70.000000 14 378.439067
-0.981212 -0.743978 0.980161 73.000000 12 378.439070
-1.021877 -0.774529 0.838803 40.000000 10 378.439072
-1.064280 -0.806665 0.704803 73.000000 8 378.439075
-1.107083 -0.838803 0.572291 69.000000 6 378.439077
-1.150905 -0.871689 0.438931 67.000000 4 378.439080
-1.196208 -0.905673 0.301215 49.000000 2 378.439082
-1.234717 -0.934490 0.156140 70.000000 0 378.439085
-0.045036 -0.022123 4.199114 31.000000 31 378.439096
-0.382111 -0.273743 2.988675 50.000000 28 378.439098
-0.463467 -0.331206 2.762169 42.000000 27 378.439101
-0.578457 -0.430672 2.351295 55.000000 25 378.439103
-0.667236 -0.502459 2.027330 56.000000 23 378.439106
-0.748488 -0.563841 1.783904 56.000000 21 378.439108
-0.814178 -0.613320 1.569733 56.000000 19 378.439111
-0.872151 -0.656987 1.383484 62.000000 17 378.439114
-0.188154 -0.121628 3.703203 38.000000 30 378.439121
-0.298056 -0.203134 3.315744 39.000000 29 378.439124
-0.521988 -0.382970 2.528390 49.000000 26 378.439126
-0.626027 -0.469721 2.182551 56.000000 24 378.439129
-0.710108 -0.533187 1.899104 68.000000 22 378.439132
-0.777085 -0.583680 1.659868 64.000000 20 378.439134
-0.835956 -0.627894 1.458678 64.000000 18 378.439137
-0.890040 -0.668514 1.285023 69.000000 16 378.439139
-0.922434 -0.696629 1.215725 66.000000 15 378.439097
-0.968560 -0.731460 1.060705 67.000000 13 378.439099
-1.009588 -0.762168 0.913968 44.000000 11 378.439102
-1.047742 -0.790968 0.773452 67.000000 9 378.439105
-1.088590 -0.821507 0.639323 70.000000 7 378.439107
-1.126226 -0.849600 0.504346 59.000000 5 378.439110
-1.164694 -0.878619 0.368460 58.000000 3 378.439112
-1.212571 -0.914405 0.229025 48.000000 1 378.439115
-0.939652 -0.707317 1.128298 70.000000 14 378.439123
-0.980574 -0.738117 0.977218 73.000000 12 378.439125
-1.021129 -0.768365 0.836271 45.000000 10 378.439128
-1.063462 -0.800216 0.702705 73.000000 8 378.439130
-1.106230 -0.832095 0.570649 71.000000 6 378.439133
-1.150056 -0.864746 0.437759 67.000000 4 378.439135
-1.195404 -0.898517 0.300525 49.000000 2 378.439138
-1.233978 -0.927173 0.155938 70.000000 0 378.439140
-0.045113 -0.021965 4.199114 31.000000 31 378.439151
-0.382431 -0.271958 2.983736 52.000000 28 378.439154
-0.463790 -0.328998 2.757274 42.000000 27 378.439156
-0.578756 -0.427763 2.346523 55.000000 25 378.439159
-0.667421 -0.498957 2.022728 55.000000 23 378.439161
-0.748533 -0.559790 1.779516 58.000000 21 378.439164
-0.816314 -0.610475 1.569733 56.000000 19 378.439166
-0.871872 -0.652019 1.379647 60.000000 17 378.439169
-0.188556 -0.121003 3.703203 38.000000 30 378.439177
-0.298728 -0.202144 3.315744 39.000000 29 378.439179
-0.522239 -0.380497 2.523551 51.000000 26 378.439182
-0.627581 -0.467643 2.182551 60.000000 24 378.439184
-0.711965 -0.530705 1.899104 68.000000 22 378.439187
-0.777027 -0.579405 1.655602 64.000000 20 378.439190
-0.838142 -0.624972 1.458678 67.000000 18 378.439192
-0.892252 -0.665559 1.285023 71.000000 16 378.439195
-0.922006 -0.691266 1.212220 66.000000 15 378.439152
-0.967993 -0.725740 1.057568 66.000000 13 378.439155
-1.008897 -0.756132 0.911227 45.000000 11 378.439158
-1.046952 -0.784649 0.771134 67.000000 9 378.439160
-1.091308 -0.817893 0.639323 70.000000 7 378.439163
-1.129037 -0.845861 0.504346 59.000000 5 378.439165
-1.163821 -0.871604 0.367528 53.000000 3 378.439168
-1.211769 -0.907182 0.228579 45.000000 1 378.439170
-0.942115 -0.704033 1.128298 68.000000 14 378.439178
-0.979907 -0.732270 0.974275 73.000000 12 378.439181
-1.023672 -0.764975 0.836271 49.000000 10 378.439183
-1.062474 -0.793968 0.700607 73.000000 8 378.439186
-1.108983 -0.828422 0.570649 69.000000 6 378.439188
-1.149022 -0.858019 0.436587 67.000000 4 378.439191
-1.194408 -0.891586 0.299835 49.000000 2 378.439193
-1.233041 -0.920088 0.155737 68.000000 0 378.439196
-0.045186 -0.021816 4.199114 32.000000 31 378.439207
-0.383331 -0.270688 2.983736 52.000000 28 378.439209
-0.464878 -0.327458 2.757274 43.000000 27 378.439212
-0.580171 -0.425841 2.346523 53.000000 25 378.439214
-0.669072 -0.496741 2.022728 56.000000 23 378.439217
-0.748462 -0.555876 1.775127 58.000000 21 378.439219
-0.816075 -0.606086 1.565600 58.000000 19 378.439222
-0.874029 -0.649124 1.379647 58.000000 17 378.439225
-0.188733 -0.120190 3.698211 38.000000 30 378.439232
-0.298988 -0.200804 3.310773 39.000000 29 378.439235
-0.523564 -0.378672 2.523551 51.000000 26 378.439237
-0.627822 -0.464423 2.177858 56.000000 24 378.439240
-0.711970 -0.527045 1.894604 68.000000 22 378.439243
-0.778944 -0.576825 1.655602 64.000000 20 378.439245
-0.837788 -0.620396 1.454689 66.000000 18 378.439248
-0.891846 -0.660423 1.281348 67.000000 16 378.439250
-0.924294 -0.688204 1.212220 67.000000 15 378.439208
-0.970394 -0.722526 1.057568 66.000000 13 378.439210
-1.011399 -0.752782 0.911227 45.000000 11 378.439213
-1.049548 -0.781173 0.771134 69.000000 9 378.439216
-1.090437 -0.811311 0.637450 67.000000 7 378.439218
-1.128134 -0.839052 0.502937 61.000000 5 378.439221
-1.162764 -0.864808 0.366595 53.000000 3 378.439223
-1.210774 -0.900187 0.228133 45.000000 1 378.439226
-0.941446 -0.698679 1.124973 70.000000 14 378.439234
-0.982330 -0.729017 0.974275 73.000000 12 378.439236
-1.022873 -0.758828 0.833738 51.000000 10 378.439239
-1.065239 -0.790255 0.700607 73.000000 8 378.439241
-1.108075 -0.821733 0.569006 69.000000 6 378.439244
-1.148106 -0.851108 0.435414 67.000000 4 378.439246
-1.197513 -0.887411 0.299835 48.000000 2 378.439249
-1.232231 -0.912805 0.155535 58.000000 0 378.439252
-0.045261 -0.021658 4.199114 32.000000 31 378.439262
-0.383637 -0.268903 2.978796 52.000000 28 378.439265
-0.465184 -0.325250 2.752378 42.000000 27 378.439267
-0.580447 -0.422934 2.341752 55.000000 25 378.439270
-0.669229 -0.493243 2.018125 56.000000 23 378.439272
-0.750397 -0.553260 1.775127 58.000000 21 378.439275
-0.815920 -0.601564 1.561467 58.000000 19 378.439278
-0.873709 -0.644167 1.375810 60.000000 17 378.439280
-0.189151 -0.119530 3.698211 38.000000 30 378.439288
-0.299688 -0.199759 3.310773 39.000000 29 378.439290
-0.523860 -0.376108 2.518712 51.000000 26 378.439293
-0.629439 -0.462229 2.177858 54.000000 24 378.439296
-0.713806 -0.524557 1.894604 68.000000 22 378.439298
-0.778851 -0.572558 1.651336 64.000000 20 378.439301
-0.839948 -0.617468 1.454689 62.000000 18 378.439303
-0.891414 -0.655297 1.277673 67.000000 16 378.439306
-0.923822 -0.682854 1.208716 64.000000 15 378.439263
-0.969780 -0.716820 1.054430 66.000000 13 378.439266
-1.010657 -0.746762 0.908485 52.000000 11 378.439269
-1.048705 -0.774872 0.768816 67.000000 9 378.439271
-1.093263 -0.807500 0.637450 67.000000 7 378.439274
-1.131056 -0.835109 0.502937 61.000000 5 378.439276
-1.161824 -0.857826 0.365662 53.000000 3 378.439279
-1.213909 -0.895956 0.228133 40.000000 1 378.439281
-0.940872 -0.693174 1.121648 68.000000 14 378.439289
-0.981614 -0.723186 0.971332 73.000000 12 378.439292
-1.022044 -0.752697 0.831206 60.000000 10 378.439294
-1.064337 -0.783840 0.698509 71.000000 8 378.439297
-1.107133 -0.815060 0.567363 69.000000 6 378.439299
-1.151070 -0.847095 0.435414 67.000000 4 378.439302
-1.196615 -0.880291 0.299145 48.000000 2 378.439304
-1.235410 -0.908498 0.155535 39.000000 0 378.439307
-0.045337 -0.021500 4.199114 26.000000 31 378.439318
-0.384573 -0.267562 2.978796 52.000000 28 378.439320
-0.466316 -0.323624 2.752378 43.000000 27 378.439323
-0.581919 -0.420905 2.341752 55.000000 25 378.439325
-0.669370 -0.489751 2.013523 58.000000 23 378.439328
-0.750391 -0.549222 1.770738 58.000000 21 378.439330
-0.818015 -0.598713 1.561467 56.000000 19 378.439333
-0.875952 -0.641113 1.375810 62.000000 17 378.439336
-0.189321 -0.118717 3.693220 38.000000 30 378.439343
-0.299937 -0.198418 3.305801 39.000000 29 378.439346
-0.525170 -0.374278 2.518712 51.000000 26 378.439348
-0.629654 -0.459012 2.173165 56.000000 24 378.439351
-0.713873 -0.520778 1.890103 68.000000 22 378.439354
-0.780845 -0.569835 1.651336 66.000000 20 378.439356
-0.839664 -0.612755 1.450699 64.000000 18 378.439359
-0.893696 -0.652182 1.277673 69.000000 16 378.439361
-0.926200 -0.679625 1.208716 64.000000 15 378.439319
-0.972276 -0.713430 1.054430 66.000000 13 378.439322
-1.013258 -0.743230 0.908485 60.000000 11 378.439324
-1.051404 -0.771206 0.768816 67.000000 9 378.439327
-1.092336 -0.800937 0.635576 70.000000 7 378.439329
-1.130095 -0.828320 0.501528 61.000000 5 378.439332
-1.164811 -0.853765 0.365662 53.000000 3 378.439334
-1.213012 -0.888769 0.227687 40.000000 1 378.439337
-0.943286 -0.689885 1.121648 70.000000 14 378.439345
-0.984133 -0.719755 0.971332 73.000000 12 378.439347
-1.024665 -0.749125 0.831206 60.000000 10 378.439350
-1.067067 -0.780120 0.698509 71.000000 8 378.439352
-1.106159 -0.808404 0.565721 71.000000 6 378.439355
-1.150095 -0.840205 0.434242 67.000000 4 378.439357
-1.195681 -0.873188 0.298455 49.000000 2 378.439360
-1.238573 -0.904180 0.155535 39.000000 0 378.439363
-0.045412 -0.021341 4.199114 26.000000 31 378.439373
-0.385505 -0.266218 2.978796 52.000000 28 378.439376
-0.466604 -0.321418 2.747483 42.000000 27 378.439378
-0.582172 -0.418001 2.336980 55.000000 25 378.439381
-0.669494 -0.486263 2.008920 57.000000 23 378.439383
-0.752303 -0.546600 1.770738 58.000000 21 378.439386
-0.817823 -0.594199 1.557334 56.000000 19 378.439389
-0.875591 -0.636167 1.371973 64.000000 17 378.439391
-0.189734 -0.118055 3.693220 38.000000 30 378.439399
-0.300628 -0.197369 3.305801 39.000000 29 378.439401
-0.525446 -0.371716 2.513873 51.000000 26 378.439404
-0.631253 -0.456811 2.173165 56.000000 24 378.439407
-0.715687 -0.518283 1.890103 68.000000 22 378.439409
-0.780717 -0.565576 1.647070 66.000000 20 378.439412
-0.841798 -0.609821 1.450699 66.000000 18 378.439414
-0.893222 -0.647069 1.273998 71.000000 16 378.439417
-0.925684 -0.674288 1.205211 64.000000 15 378.439374
-0.971614 -0.707740 1.051292 65.000000 13 378.439377
-1.012465 -0.737227 0.905744 65.000000 11 378.439380
-1.050508 -0.764924 0.766498 69.000000 9 378.439382
-1.095125 -0.797119 0.635576 67.000000 7 378.439385
-1.132979 -0.824370 0.501528 61.000000 5 378.439387
-1.163812 -0.846804 0.364730 53.000000 3 378.439390
-1.216107 -0.884530 0.227687 45.000000 1 378.439392
-0.942667 -0.684394 1.118323 72.000000 14 378.439400
-0.983368 -0.713941 0.968389 73.000000 12 378.439403
-1.023785 -0.743011 0.828674 64.000000 10 378.439405
-1.066110 -0.773725 0.696411 73.000000 8 378.439408
-1.108974 -0.804538 0.565721 69.000000 6 378.439410
-1.149086 -0.833332 0.433070 66.000000 4 378.439413
-1.194712 -0.866102 0.297766 46.000000 2 378.439416
-1.241722 -0.899851 0.155535 45.000000 0 378.439418
-0.045486 -0.021183 4.199114 31.000000 31 378.439429
-0.385790 -0.264432 2.973857 41.000000 28 378.439431
-0.467723 -0.319787 2.747483 42.000000 27 378.439434
-0.583627 -0.415966 2.336980 55.000000 25 378.439436
-0.671188 -0.483923 2.008920 55.000000 23 378.439439
-0.752264 -0.542569 1.766350 60.000000 21 378.439442
-0.817610 -0.589695 1.553201 60.000000 19 378.439444
-0.877806 -0.633107 1.371973 60.000000 17 378.439447
-0.190145 -0.117392 3.693220 38.000000 30 378.439454
-0.301315 -0.196319 3.305801 39.000000 29 378.439457
-0.526740 -0.369880 2.513873 53.000000 26 378.439460
-0.631442 -0.453598 2.168473 56.000000 24 378.439462
-0.715723 -0.514511 1.885602 68.000000 22 378.439465
-0.782687 -0.562848 1.647070 64.000000 20 378.439467
-0.841474 -0.605119 1.446710 66.000000 18 378.439470
-0.895475 -0.643948 1.273998 71.000000 16 378.439472
-0.928032 -0.671053 1.205211 64.000000 15 378.439430
-0.970924 -0.702063 1.048154 67.000000 13 378.439433
-1.015033 -0.733688 0.905744 65.000000 11 378.439435
-1.049581 -0.758657 0.764180 69.000000 9 378.439438
-1.094144 -0.790577 0.633703 67.000000 7 378.439440
-1.131961 -0.817601 0.500118 61.000000 5 378.439443
-1.166761 -0.842736 0.364730 53.000000 3 378.439445
-1.215149 -0.877364 0.227241 40.000000 1 378.439448
-0.945050 -0.681100 1.118323 72.000000 14 378.439456
-0.985854 -0.710504 0.968389 73.000000 12 378.439458
-1.022874 -0.736913 0.826141 66.000000 10 378.439461
-1.065122 -0.767346 0.694313 69.000000 8 378.439463
-1.107944 -0.797902 0.564078 68.000000 6 378.439466
-1.151988 -0.829316 0.433070 64.000000 4 378.439468
-1.193708 -0.859034 0.297076 46.000000 2 378.439471
-1.244856 -0.895511 0.155535 40.000000 0 378.439474
-0.045559 -0.021024 4.199114 31.000000 31 378.439484
-0.386711 -0.263084 2.973857 43.000000 28 378.439487
-0.467993 -0.317581 2.742588 42.000000 27 378.439489
-0.583856 -0.413064 2.332208 55.000000 25 378.439492
-0.671284 -0.480440 2.004318 57.000000 23 378.439494
-0.754153 -0.539940 1.766350 60.000000 21 378.439497
-0.819664 -0.586837 1.553201 58.000000 19 378.439499
-0.877404 -0.628172 1.368136 62.000000 17 378.439502
-0.190554 -0.116728 3.693220 38.000000 30 378.439510
-0.301998 -0.195266 3.305801 39.000000 29 378.439512
-0.528028 -0.368039 2.513873 51.000000 26 378.439515
-0.633021 -0.451392 2.168473 56.000000 24 378.439517
-0.717515 -0.512009 1.885602 69.000000 22 378.439520
-0.782524 -0.558597 1.642804 66.000000 20 378.439522
-0.843582 -0.602178 1.446710 66.000000 18 378.439525
-0.894958 -0.638848 1.270323 71.000000 16 378.439528
-0.927472 -0.665730 1.201707 66.000000 15 378.439485
-0.973368 -0.698670 1.048154 61.000000 13 378.439488
-1.014190 -0.727703 0.903003 67.000000 11 378.439490
-1.052223 -0.754989 0.764180 67.000000 9 378.439493
-1.096897 -0.786753 0.633703 67.000000 7 378.439496
-1.134808 -0.813645 0.500118 61.000000 5 378.439498
-1.165703 -0.835796 0.363797 51.000000 3 378.439501
-1.218205 -0.873117 0.227241 39.000000 1 378.439503
-0.944384 -0.675624 1.114998 70.000000 14 378.439511
-0.985041 -0.704706 0.965446 73.000000 12 378.439514
-1.025440 -0.733338 0.826141 66.000000 10 378.439516
-1.064102 -0.760983 0.692215 71.000000 8 378.439519
-1.110722 -0.794030 0.564078 68.000000 6 378.439521
-1.150921 -0.822463 0.431897 64.000000 4 378.439524
-1.196700 -0.854862 0.297076 48.000000 2 378.439526
-1.252040 -0.894064 0.155737 39.000000 0 378.439529
-0.045633 -0.020864 4.199114 31.000000 31 378.439540
-0.386983 -0.261298 2.968918 52.000000 28 378.439542
-0.469099 -0.315946 2.742588 40.000000 27 378.439545
-0.585295 -0.411023 2.332208 55.000000 25 378.439547
-0.672957 -0.478094 2.004318 57.000000 23 378.439550
-0.754080 -0.535916 1.761961 60.000000 21 378.439552
-0.819413 -0.582343 1.549068 58.000000 19 378.439555
-0.876979 -0.623249 1.364299 62.000000 17 378.439557
-0.190692 -0.115946 3.688228 38.000000 30 378.439565
-0.302644 -0.194263 3.305801 39.000000 29 378.439568
-0.528211 -0.365570 2.509033 51.000000 26 378.439570
-0.633106 -0.448293 2.163780 56.000000 24 378.439573
-0.717520 -0.508243 1.881101 69.000000 22 378.439575
-0.784469 -0.555862 1.642804 64.000000 20 378.439578
-0.843219 -0.597487 1.442720 66.000000 18 378.439581
-0.894306 -0.633916 1.266647 71.000000 16 378.439583
-0.929790 -0.662488 1.201707 66.000000 15 378.439541
-0.972631 -0.693009 1.045017 63.000000 13 378.439543
-1.016724 -0.724158 0.903003 68.000000 11 378.439546
-1.051243 -0.748741 0.761862 69.000000 9 378.439548
-1.095723 -0.780421 0.631830 67.000000 7 378.439551
-1.133592 -0.807095 0.498709 61.000000 5 378.439554
-1.168614 -0.831722 0.363797 51.000000 3 378.439556
-1.217187 -0.865973 0.226794 39.000000 1 378.439559
-0.946737 -0.672323 1.114998 72.000000 14 378.439566
-0.987495 -0.701264 0.965446 73.000000 12 378.439569
-1.024351 -0.727437 0.823609 66.000000 10 378.439572
-1.066620 -0.757450 0.692215 73.000000 8 378.439574
-1.109498 -0.787609 0.562435 68.000000 6 378.439577
-1.149678 -0.815829 0.430725 66.000000 4 378.439579
-1.195489 -0.848023 0.296386 45.000000 2 378.439582
-1.259073 -0.892797 0.155938 37.000000 0 378.439584
-0.045701 -0.020713 4.199114 31.000000 31 378.439595
-0.387847 -0.260013 2.968918 52.000000 28 378.439598
-0.469298 -0.313823 2.737693 40.000000 27 378.439600
-0.585429 -0.408226 2.327436 56.000000 25 378.439603
-0.674539 -0.475860 2.004318 57.000000 23 378.439605
-0.755853 -0.533412 1.761961 60.000000 21 378.439608
-0.821340 -0.579622 1.549068 58.000000 19 378.439610
-0.876421 -0.618489 1.360462 62.000000 17 378.439613
-0.191095 -0.115280 3.688228 38.000000 30 378.439621
-0.302870 -0.192920 3.300830 39.000000 29 378.439623
-0.529484 -0.363724 2.509033 53.000000 26 378.439626
-0.634667 -0.446080 2.163780 58.000000 24 378.439628
-0.719202 -0.505861 1.881101 69.000000 22 378.439631
-0.784175 -0.551757 1.638538 62.000000 20 378.439634
-0.845196 -0.594688 1.442720 66.000000 18 378.439636
-0.893740 -0.628840 1.262972 71.000000 16 378.439639
-0.929071 -0.657341 1.198202 66.000000 15 378.439596
-0.974924 -0.689780 1.045017 65.000000 13 378.439599
-1.015706 -0.718368 0.900261 69.000000 11 378.439601
-1.050104 -0.742693 0.759544 67.000000 9 378.439604
-1.098441 -0.776592 0.631830 65.000000 7 378.439607
-1.136402 -0.803133 0.498709 61.000000 5 378.439609
-1.167354 -0.825007 0.362865 49.000000 3 378.439612
-1.215985 -0.859058 0.226348 39.000000 1 378.439614
-0.945910 -0.667028 1.111674 70.000000 14 378.439622
-0.986512 -0.695656 0.962502 73.000000 12 378.439625
-1.026884 -0.723857 0.823609 67.000000 10 378.439627
-1.065548 -0.751108 0.690117 71.000000 8 378.439630
-1.112241 -0.783731 0.562435 68.000000 6 378.439632
-1.152519 -0.811811 0.430725 66.000000 4 378.439635
-1.194392 -0.840994 0.295696 45.000000 2 378.439637
-1.262182 -0.888396 0.155938 35.000000 0 378.439640
-0.045815 -0.020568 4.204114 31.000000 31 378.439651
-0.388105 -0.258228 2.963979 52.000000 28 378.439653
-0.470390 -0.312183 2.737693 42.000000 27 378.439656
-0.586851 -0.406180 2.327436 56.000000 25 378.439658
-0.674595 -0.472382 1.999715 57.000000 23 378.439661
-0.755748 -0.529396 1.757573 58.000000 21 378.439663
-0.821053 -0.575137 1.544935 60.000000 19 378.439666
-0.878575 -0.615426 1.360462 62.000000 17 378.439668
-0.191496 -0.114612 3.688228 38.000000 30 378.439676
-0.303541 -0.191861 3.300830 39.000000 29 378.439679
-0.529711 -0.361165 2.504194 52.000000 26 378.439681
-0.634805 -0.442875 2.159087 58.000000 24 378.439684
-0.719178 -0.502101 1.876600 69.000000 22 378.439686
-0.786096 -0.549016 1.638538 62.000000 20 378.439689
-0.844796 -0.590008 1.438731 66.000000 18 378.439692
-0.895930 -0.625716 1.262972 71.000000 16 378.439694
-0.931360 -0.654094 1.198202 66.000000 15 378.439652
-0.974140 -0.684135 1.041879 65.000000 13 378.439654
-1.018207 -0.714818 0.900261 69.000000 11 378.439657
-1.052690 -0.739023 0.759544 66.000000 9 378.439660
-1.097350 -0.770090 0.629957 65.000000 7 378.439662
-1.135271 -0.796406 0.497300 61.000000 5 378.439665
-1.170226 -0.820927 0.362865 49.000000 3 378.439667
-1.214898 -0.851949 0.225902 37.000000 1 378.439670
-0.945173 -0.661581 1.108349 70.000000 14 378.439678
-0.988934 -0.692208 0.962502 73.000000 12 378.439680
-1.025872 -0.717796 0.821076 67.000000 10 378.439683
-1.068163 -0.747384 0.690117 71.000000 8 378.439685
-1.114970 -0.779844 0.562435 70.000000 6 378.439688
-1.151362 -0.804998 0.429553 64.000000 4 378.439690
-1.193262 -0.833983 0.295006 42.000000 2 378.439693
-1.269371 -0.886846 0.156140 32.000000 0 378.439695
-0.045845 -0.020393 4.199114 31.000000 31 378.439706
-0.389004 -0.256872 2.963979 52.000000 28 378.439709
-0.471477 -0.310539 2.737693 42.000000 27 378.439711
-0.588265 -0.404129 2.327436 56.000000 25 378.439714
-0.676240 -0.470024 1.999715 57.000000 23 378.439716
-0.757592 -0.526755 1.757573 58.000000 21 378.439719
-0.823056 -0.572268 1.544935 60.000000 19 378.439721
-0.878085 -0.610525 1.356625 62.000000 17 378.439724
-0.191646 -0.113796 3.683236 38.000000 30 378.439732
-0.303756 -0.190518 3.295859 39.000000 29 378.439734
-0.530969 -0.359314 2.504194 52.000000 26 378.439737
-0.636347 -0.440656 2.159087 56.000000 24 378.439739
-0.721013 -0.499461 1.876600 69.000000 22 378.439742
-0.785959 -0.544646 1.634272 62.000000 20 378.439745
-0.846953 -0.586908 1.438731 66.000000 18 378.439747
-0.895431 -0.620498 1.259297 71.000000 16 378.439750
-0.930712 -0.648800 1.194697 67.000000 15 378.439707
-0.976522 -0.680731 1.041879 65.000000 13 378.439710
-1.017266 -0.708869 0.897520 68.000000 11 378.439712
-1.051628 -0.732811 0.757226 66.000000 9 378.439715
-1.100032 -0.766255 0.629957 65.000000 7 378.439718
-1.138044 -0.792438 0.497300 61.000000 5 378.439720
-1.169196 -0.813826 0.361932 47.000000 3 378.439723
-1.213925 -0.844646 0.225456 37.000000 1 378.439725
-0.944524 -0.655982 1.105024 70.000000 14 378.439733
-0.988144 -0.686273 0.959559 73.000000 12 378.439736
-1.024955 -0.711573 0.818544 69.000000 10 378.439738
-1.067167 -0.740875 0.688019 71.000000 8 378.439741
-1.113941 -0.773059 0.560793 70.000000 6 378.439743
-1.154305 -0.800773 0.429553 64.000000 4 378.439746
-1.196310 -0.829604 0.295006 42.000000 2 378.439748
-1.272459 -0.882410 0.156140 31.000000 0 378.439751
-0.045919 -0.020225 4.199114 32.000000 31 378.439762
-0.389943 -0.255444 2.963979 52.000000 28 378.439764
-0.472612 -0.308809 2.737693 43.000000 27 378.439767
-0.588508 -0.401129 2.322665 56.000000 25 378.439769
-0.677958 -0.467543 1.999715 55.000000 23 378.439772
-0.759517 -0.523975 1.757573 60.000000 21 378.439774
-0.822832 -0.567649 1.540802 60.000000 19 378.439777
-0.880317 -0.607303 1.356625 62.000000 17 378.439780
-0.192061 -0.113093 3.683236 38.000000 30 378.439787
-0.304452 -0.189403 3.295859 39.000000 29 378.439790
-0.531238 -0.356665 2.499355 54.000000 26 378.439792
-0.636536 -0.437344 2.154394 56.000000 24 378.439795
-0.720958 -0.495708 1.872099 66.000000 22 378.439798
-0.787856 -0.541899 1.634272 62.000000 20 378.439800
-0.846513 -0.582240 1.434741 66.000000 18 378.439803
-0.897591 -0.617368 1.259297 71.000000 16 378.439805
-0.933083 -0.645384 1.194697 64.000000 15 378.439763
-0.979010 -0.677147 1.041879 67.000000 13 378.439765
-1.019857 -0.705136 0.897520 68.000000 11 378.439768
-1.050663 -0.726432 0.754908 66.000000 9 378.439771
-1.099019 -0.759582 0.628084 67.000000 7 378.439773
-1.136994 -0.785535 0.495891 61.000000 5 378.439776
-1.172029 -0.809740 0.361932 47.000000 3 378.439778
-1.212768 -0.837573 0.225009 37.000000 1 378.439781
-0.943733 -0.650561 1.101699 69.000000 14 378.439789
-0.987206 -0.680526 0.956616 73.000000 12 378.439791
-1.027433 -0.707991 0.818544 69.000000 10 378.439794
-1.069747 -0.737146 0.688019 71.000000 8 378.439796
-1.116632 -0.769166 0.560793 70.000000 6 378.439799
-1.153089 -0.793982 0.428380 64.000000 4 378.439801
-1.195120 -0.822615 0.294317 40.000000 2 378.439804
-1.275684 -0.877740 0.156140 29.000000 0 378.439806
-0.045990 -0.020065 4.199114 32.000000 31 378.439817
-0.390832 -0.254081 2.963979 53.000000 28 378.439820
-0.472832 -0.306604 2.732797 43.000000 27 378.439822
-0.589905 -0.399072 2.322665 56.000000 25 378.439825
-0.677974 -0.464070 1.995113 55.000000 23 378.439827
-0.759365 -0.519967 1.753184 58.000000 21 378.439830
-0.824808 -0.564773 1.540802 60.000000 19 378.439832
-0.879786 -0.602415 1.352788 60.000000 17 378.439835
-0.192435 -0.112455 3.683236 38.000000 30 378.439843
-0.304624 -0.188113 3.290887 39.000000 29 378.439845
-0.532418 -0.354901 2.499355 54.000000 26 378.439848
-0.637983 -0.435230 2.154394 58.000000 24 378.439850
-0.722684 -0.493188 1.872099 69.000000 22 378.439853
-0.787589 -0.537675 1.630006 62.000000 20 378.439856
-0.848540 -0.579281 1.434741 66.000000 18 378.439858
-0.896834 -0.612476 1.255622 69.000000 16 378.439861
-0.932390 -0.640105 1.191193 66.000000 15 378.439818
-0.978159 -0.671522 1.038741 67.000000 13 378.439821
-1.018865 -0.699206 0.894778 68.000000 11 378.439824
-1.053192 -0.722760 0.754908 67.000000 9 378.439826
-1.097710 -0.753310 0.626211 67.000000 7 378.439829
-1.139593 -0.781760 0.495891 61.000000 5 378.439831
-1.170798 -0.802866 0.360999 47.000000 3 378.439834
-1.211577 -0.830519 0.224563 37.000000 1 378.439836
-0.945999 -0.647263 1.101699 67.000000 14 378.439844
-0.989576 -0.677075 0.956616 71.000000 12 378.439847
-1.026217 -0.702145 0.816011 69.000000 10 378.439849
-1.068440 -0.731031 0.685921 71.000000 8 378.439852
-1.115279 -0.762793 0.559150 70.000000 6 378.439854
-1.155716 -0.790154 0.428380 66.000000 4 378.439857
-1.197841 -0.818647 0.294317 40.000000 2 378.439859
-1.278588 -0.873505 0.156140 28.000000 0 378.439862
-0.046097 -0.019926 4.204114 32.000000 31 378.439873
-0.391019 -0.252363 2.959039 52.000000 28 378.439875
-0.473846 -0.305034 2.732797 43.000000 27 378.439878
-0.589985 -0.396281 2.317893 58.000000 25 378.439880
-0.679509 -0.461819 1.995113 58.000000 23 378.439883
-0.761085 -0.517446 1.753184 56.000000 21 378.439885
-0.824349 -0.560453 1.536669 58.000000 19 378.439888
-0.881779 -0.599494 1.352788 60.000000 17 378.439891
-0.192827 -0.111783 3.683236 38.000000 30 378.439898
-0.305279 -0.187049 3.290887 39.000000 29 378.439901
-0.532604 -0.352347 2.494516 53.000000 26 378.439903
-0.638069 -0.432033 2.149702 56.000000 24 378.439906
-0.722512 -0.489567 1.867599 71.000000 22 378.439909
-0.789367 -0.535060 1.630006 62.000000 20 378.439911
-0.847961 -0.574773 1.430752 66.000000 18 378.439914
-0.896160 -0.607440 1.251947 71.000000 16 378.439916
-0.934508 -0.637010 1.191193 66.000000 15 378.439874
-0.980380 -0.668275 1.038741 65.000000 13 378.439876
-1.021178 -0.695823 0.894778 68.000000 11 378.439879
-1.051922 -0.716769 0.752590 67.000000 9 378.439882
-1.100332 -0.749474 0.626211 67.000000 7 378.439884
-1.138350 -0.775078 0.494482 59.000000 5 378.439887
-1.169393 -0.796215 0.360067 47.000000 3 378.439889
-1.214324 -0.826497 0.224563 37.000000 1 378.439892
-0.945051 -0.642024 1.098374 69.000000 14 378.439900
-0.988472 -0.671519 0.953673 71.000000 12 378.439902
-1.028661 -0.698559 0.816011 67.000000 10 378.439905
-1.070985 -0.727297 0.685921 69.000000 8 378.439907
-1.114028 -0.756243 0.557507 70.000000 6 378.439910
-1.154445 -0.783386 0.427208 66.000000 4 378.439912
-1.196593 -0.811681 0.293627 40.000000 2 378.439915
-1.281629 -0.869037 0.156140 27.000000 0 378.439918
-0.046167 -0.019765 4.204114 32.000000 31 378.439928
-0.391898 -0.250997 2.959039 53.000000 28 378.439931
-0.474050 -0.302831 2.727902 43.000000 27 378.439933
-0.591364 -0.394219 2.317893 58.000000 25 378.439936
-0.679498 -0.458352 1.990510 58.000000 23 378.439938
-0.760901 -0.513446 1.748795 56.000000 21 378.439941
-0.826301 -0.557572 1.536669 58.000000 19 378.439944
-0.881209 -0.594619 1.348951 61.000000 17 378.439946
-0.193216 -0.111109 3.683236 38.000000 30 378.439954
-0.305473 -0.185705 3.285916 39.000000 29 378.439956
-0.533831 -0.350486 2.494516 53.000000 26 378.439959
-0.639573 -0.429803 2.149702 56.000000 24 378.439962
-0.724302 -0.486916 1.867599 68.000000 22 378.439964
-0.789159 -0.530708 1.625740 60.000000 20 378.439967
-0.850062 -0.571661 1.430752 66.000000 18 378.439969
-0.898381 -0.604151 1.251947 71.000000 16 378.439972
-0.933772 -0.631745 1.187688 64.000000 15 378.439929
-0.979483 -0.662667 1.035603 67.000000 13 378.439932
-1.020137 -0.689912 0.892037 68.000000 11 378.439935
-1.054418 -0.713093 0.752590 68.000000 9 378.439937
-1.099101 -0.743032 0.624338 67.000000 7 378.439940
-1.141048 -0.771099 0.494482 57.000000 5 378.439942
-1.172303 -0.791923 0.360067 45.000000 3 378.439945
-1.213218 -0.819254 0.224117 37.000000 1 378.439947
-0.947398 -0.638556 1.098374 67.000000 14 378.439955
-0.990926 -0.667891 0.953673 73.000000 12 378.439958
-1.027639 -0.692375 0.813479 69.000000 10 378.439960
-1.069880 -0.720831 0.683823 69.000000 8 378.439963
-1.112875 -0.749517 0.555864 68.000000 6 378.439965
-1.153277 -0.776434 0.426036 64.000000 4 378.439968
-1.199560 -0.807290 0.293627 40.000000 2 378.439970
-1.284655 -0.864558 0.156140 26.000000 0 378.439973
-0.046239 -0.019596 4.204114 32.000000 31 378.439984
-0.392815 -0.249559 2.959039 53.000000 28 378.439986
-0.475157 -0.301091 2.727902 45.000000 27 378.439989
-0.592805 -0.392049 2.317893 56.000000 25 378.439991
-0.679549 -0.454772 1.985908 60.000000 23 378.439994
-0.762778 -0.510654 1.748795 60.000000 21 378.439996
-0.826000 -0.552974 1.532536 58.000000 19 378.439999
-0.883383 -0.591385 1.348951 61.000000 17 378.440002
-0.193602 -0.110434 3.683236 38.000000 30 378.440009
-0.306119 -0.184638 3.285916 39.000000 29 378.440012
-0.535051 -0.348620 2.494516 54.000000 26 378.440014
-0.639634 -0.426611 2.145009 56.000000 24 378.440017
-0.724185 -0.483176 1.863098 68.000000 22 378.440020
-0.791007 -0.527950 1.625740 60.000000 20 378.440022
-0.849546 -0.567017 1.426762 66.000000 18 378.440025
-0.897560 -0.599286 1.248272 71.000000 16 378.440027
-0.936081 -0.628319 1.187688 64.000000 15 378.439985
-0.981905 -0.659073 1.035603 67.000000 13 378.439988
-1.022658 -0.686168 0.892037 68.000000 11 378.439990
-1.053346 -0.706755 0.750272 68.000000 9 378.439993
-1.097839 -0.736608 0.622465 67.000000 7 378.439995
-1.139749 -0.764439 0.493072 57.000000 5 378.439998
-1.170981 -0.785091 0.359134 45.000000 3 378.440000
-1.216070 -0.815014 0.224117 38.000000 1 378.440003
-0.946517 -0.633169 1.095049 67.000000 14 378.440011
-0.989892 -0.662181 0.950730 71.000000 12 378.440013
-1.029930 -0.688963 0.813479 69.000000 10 378.440016
-1.072264 -0.717280 0.683823 69.000000 8 378.440018
-1.115354 -0.745822 0.555864 70.000000 6 378.440021
-1.155845 -0.772606 0.426036 62.000000 4 378.440023
-1.198113 -0.800557 0.292937 40.000000 2 378.440026
-1.287665 -0.860068 0.156140 26.000000 0 378.440029
-0.046303 -0.019443 4.204114 32.000000 31 378.440039
-0.392983 -0.247841 2.954100 53.000000 28 378.440042
-0.475290 -0.298972 2.723007 43.000000 27 378.440044
-0.592853 -0.389262 2.313121 56.000000 25 378.440047
-0.681054 -0.452516 1.985908 59.000000 23 378.440049
-0.762471 -0.506795 1.744407 60.000000 21 378.440052
-0.827829 -0.550232 1.532536 60.000000 19 378.440055
-0.882669 -0.586678 1.345114 63.000000 17 378.440057
-0.193987 -0.109758 3.683236 38.000000 30 378.440065
-0.306762 -0.183568 3.285916 39.000000 29 378.440067
-0.535208 -0.346068 2.489676 53.000000 26 378.440070
-0.641119 -0.424375 2.145009 58.000000 24 378.440073
-0.725784 -0.480772 1.863098 69.000000 22 378.440075
-0.790579 -0.523884 1.621474 60.000000 20 378.440078
-0.851421 -0.564197 1.426762 66.000000 18 378.440080
-0.899646 -0.596150 1.248272 69.000000 16 378.440083
-0.935192 -0.623233 1.184184 66.000000 15 378.440040
-0.980845 -0.653654 1.032465 67.000000 13 378.440043
-1.021448 -0.680455 0.889295 68.000000 11 378.440046
-1.055683 -0.703258 0.750272 68.000000 9 378.440048
-1.100403 -0.732771 0.622465 65.000000 7 378.440051
-1.142410 -0.760456 0.493072 61.000000 5 378.440053
-1.173578 -0.781203 0.359134 45.000000 3 378.440056
-1.214620 -0.808218 0.223671 39.000000 1 378.440058
-0.948611 -0.630027 1.095049 67.000000 14 378.440066
-0.992083 -0.658895 0.950730 73.000000 12 378.440069
-1.028736 -0.682980 0.810947 69.000000 10 378.440071
-1.070980 -0.711022 0.681725 69.000000 8 378.440074
-1.114016 -0.739313 0.554222 68.000000 6 378.440076
-1.154484 -0.765879 0.424864 64.000000 4 378.440079
-1.200900 -0.796369 0.292937 40.000000 2 378.440082
-1.286495 -0.852808 0.155938 28.000000 0 378.440084
-0.046371 -0.019281 4.204114 30.000000 31 378.440095
-0.393846 -0.246467 2.954100 53.000000 28 378.440097
-0.476331 -0.297312 2.723007 43.000000 27 378.440100
-0.594209 -0.387190 2.313121 56.000000 25 378.440102
-0.680998 -0.449060 1.981305 59.000000 23 378.440105
-0.764236 -0.504131 1.744407 60.000000 21 378.440108
-0.829745 -0.547339 1.532536 60.000000 19 378.440110
-0.882035 -0.581828 1.341277 63.000000 17 378.440113
-0.194369 -0.109080 3.683236 38.000000 30 378.440120
-0.307401 -0.182496 3.285916 39.000000 29 378.440123
-0.536413 -0.344197 2.489676 53.000000 26 378.440126
-0.642597 -0.422135 2.145009 60.000000 24 378.440128
-0.725638 -0.477039 1.858597 69.000000 22 378.440131
-0.792403 -0.521121 1.621474 62.000000 20 378.440133
-0.850867 -0.559566 1.422773 66.000000 18 378.440136
-0.898889 -0.591143 1.244596 70.000000 16 378.440138
-0.937362 -0.619965 1.184184 66.000000 15 378.440096
-0.983121 -0.650226 1.032465 67.000000 13 378.440099
-1.020329 -0.674579 0.886554 68.000000 11 378.440101
-1.054436 -0.697125 0.747954 68.000000 9 378.440104
-1.099087 -0.726370 0.620592 67.000000 7 378.440106
-1.141055 -0.753820 0.491663 59.000000 5 378.440109
-1.172199 -0.774394 0.358202 45.000000 3 378.440111
-1.217434 -0.803973 0.223671 38.000000 1 378.440114
-0.947687 -0.624656 1.091725 69.000000 14 378.440122
-0.991002 -0.653203 0.947787 73.000000 12 378.440124
-1.031114 -0.679384 0.810947 69.000000 10 378.440127
-1.073456 -0.707279 0.681725 69.000000 8 378.440129
-1.116590 -0.735420 0.554222 68.000000 6 378.440132
-1.157151 -0.761845 0.424864 64.000000 4 378.440134
-1.199536 -0.789450 0.292247 40.000000 2 378.440137
-1.281117 -0.842820 0.155535 29.000000 0 378.440140
-0.046397 -0.019105 4.199114 30.000000 31 378.440151
-0.394043 -0.244682 2.949161 53.000000 28 378.440154
-0.477366 -0.295647 2.723007 43.000000 27 378.440156
-0.594302 -0.384303 2.308349 56.000000 25 378.440159
-0.682562 -0.446680 1.981305 61.000000 23 378.440161
-0.763986 -0.500148 1.740018 58.000000 21 378.440164
-0.829296 -0.542898 1.528403 58.000000 19 378.440166
-0.884061 -0.578746 1.341277 61.000000 17 378.440169
-0.194495 -0.108261 3.678245 38.000000 30 378.440177
-0.308036 -0.181422 3.285916 39.000000 29 378.440179
-0.537611 -0.342323 2.489676 54.000000 26 378.440182
-0.642621 -0.418947 2.140316 58.000000 24 378.440184
-0.727381 -0.474376 1.858597 69.000000 22 378.440187
-0.792123 -0.516788 1.617208 62.000000 20 378.440189
-0.852913 -0.556443 1.422773 67.000000 18 378.440192
-0.901050 -0.587844 1.244596 70.000000 16 378.440195
-0.936539 -0.614732 1.180679 66.000000 15 378.440152
-0.982131 -0.644655 1.029328 68.000000 13 378.440155
-1.022678 -0.671014 0.886554 70.000000 11 378.440157
-1.056863 -0.693441 0.747954 67.000000 9 378.440160
-1.101615 -0.722529 0.620592 67.000000 7 378.440163
-1.139667 -0.747202 0.490254 59.000000 5 378.440165
-1.175029 -0.770093 0.358202 45.000000 3 378.440168
-1.220373 -0.799506 0.223671 37.000000 1 378.440170
-0.949970 -0.621179 1.091725 69.000000 14 378.440178
-0.993389 -0.649567 0.947787 73.000000 12 378.440181
-1.033597 -0.675601 0.810947 69.000000 10 378.440183
-1.072242 -0.700857 0.679627 69.000000 8 378.440186
-1.115325 -0.728739 0.552579 68.000000 6 378.440188
-1.155866 -0.754941 0.423691 62.000000 4 378.440191
-1.202421 -0.785048 0.292247 39.000000 2 378.440193
-1.279868 -0.835612 0.155334 26.000000 0 378.440196
-0.046466 -0.018935 4.199114 26.000000 31 378.440207
-0.394938 -0.243236 2.949161 53.000000 28 378.440209
-0.477578 -0.293363 2.718112 43.000000 27 378.440212
-0.595707 -0.382122 2.308349 55.000000 25 378.440214
-0.682555 -0.443112 1.976702 57.000000 23 378.440217
-0.765814 -0.497344 1.740018 58.000000 21 378.440219
-0.831280 -0.539855 1.528403 58.000000 19 378.440222
-0.883487 -0.573756 1.337440 60.000000 17 378.440224
-0.194871 -0.107582 3.678245 38.000000 30 378.440232
-0.308206 -0.180077 3.280944 39.000000 29 378.440235
-0.537739 -0.339773 2.484837 54.000000 26 378.440237
-0.644079 -0.416701 2.140316 58.000000 24 378.440240
-0.727205 -0.470651 1.854096 69.000000 22 378.440242
-0.793922 -0.514020 1.617208 60.000000 20 378.440245
-0.852320 -0.551825 1.418783 66.000000 18 378.440248
-0.900148 -0.583010 1.240921 68.000000 16 378.440250
-0.938786 -0.611296 1.180679 66.000000 15 378.440208
-0.984487 -0.641051 1.029328 68.000000 13 378.440210
-1.021626 -0.664980 0.883812 70.000000 11 378.440213
-1.055685 -0.687146 0.745636 67.000000 9 378.440215
-1.104131 -0.718679 0.620592 67.000000 7 378.440218
-1.142269 -0.743219 0.490254 59.000000 5 378.440221
-1.177710 -0.765987 0.358202 45.000000 3 378.440223
-1.218981 -0.792526 0.223225 37.000000 1 378.440226
-0.949000 -0.615826 1.088400 69.000000 14 378.440233
-0.992260 -0.643895 0.944843 71.000000 12 378.440236
-1.032216 -0.669823 0.808414 71.000000 10 378.440239
-1.074560 -0.697297 0.679627 69.000000 8 378.440241
-1.117735 -0.725037 0.552579 68.000000 6 378.440244
-1.158363 -0.751103 0.423691 64.000000 4 378.440246
-1.200862 -0.778363 0.291557 40.000000 2 378.440249
-1.274391 -0.825706 0.154931 20.000000 0 378.440251
-0.046529 -0.018781 4.199114 26.000000 31 378.440262
-0.395742 -0.241925 2.949161 53.000000 28 378.440265
-0.478548 -0.291778 2.718112 45.000000 27 378.440267
-0.595711 -0.379342 2.303578 56.000000 25 378.440270
-0.684021 -0.440846 1.976702 59.000000 23 378.440272
-0.765446 -0.493504 1.735629 60.000000 21 378.440275
-0.830701 -0.535571 1.524270 58.000000 19 378.440277
-0.885385 -0.570823 1.337440 61.000000 17 378.440280
-0.195246 -0.106901 3.678245 38.000000 30 378.440288
-0.308833 -0.179001 3.280944 39.000000 29 378.440290
-0.538922 -0.337893 2.484837 53.000000 26 378.440293
-0.645530 -0.414450 2.140316 58.000000 24 378.440295
-0.728761 -0.468237 1.854096 71.000000 22 378.440298
-0.793429 -0.509974 1.612943 60.000000 20 378.440301
-0.854145 -0.548995 1.418783 64.000000 18 378.440303
-0.902178 -0.579865 1.240921 68.000000 16 378.440306
-0.937813 -0.606243 1.177175 62.000000 15 378.440263
-0.983338 -0.635669 1.026190 67.000000 13 378.440266
-1.020313 -0.659319 0.881071 68.000000 11 378.440268
-1.057958 -0.683641 0.745636 68.000000 9 378.440271
-1.102738 -0.712305 0.618719 67.000000 7 378.440274
-1.140826 -0.736625 0.488845 61.000000 5 378.440276
-1.176117 -0.759412 0.357269 45.000000 3 378.440279
-1.221602 -0.788480 0.223225 39.000000 1 378.440281
-0.951037 -0.612676 1.088400 67.000000 14 378.440289
-0.994390 -0.640601 0.944843 71.000000 12 378.440292
-1.034547 -0.666215 0.808414 69.000000 10 378.440294
-1.076988 -0.693542 0.679627 69.000000 8 378.440297
-1.116288 -0.718575 0.550936 68.000000 6 378.440299
-1.156890 -0.744425 0.422519 64.000000 4 378.440302
-1.203572 -0.774167 0.291557 39.000000 2 378.440304
-1.268861 -0.815849 0.154528 14.000000 0 378.440307
-0.046594 -0.018619 4.199114 31.000000 31 378.440318
-0.396584 -0.240542 2.949161 50.000000 28 378.440320
-0.478692 -0.289579 2.713217 45.000000 27 378.440323
-0.597031 -0.377261 2.303578 55.000000 25 378.440325
-0.683910 -0.437403 1.972100 61.000000 23 378.440328
-0.767164 -0.490829 1.735629 60.000000 21 378.440330
-0.832565 -0.532668 1.524270 58.000000 19 378.440333
-0.884672 -0.566001 1.333603 61.000000 17 378.440335
-0.195618 -0.106218 3.678245 39.000000 30 378.440343
-0.309456 -0.177921 3.280944 39.000000 29 378.440346
-0.539030 -0.335346 2.479998 54.000000 26 378.440348
-0.645517 -0.411267 2.135623 58.000000 24 378.440351
-0.728555 -0.464520 1.849595 73.000000 22 378.440353
-0.795204 -0.507202 1.612943 60.000000 20 378.440356
-0.853515 -0.544390 1.414794 66.000000 18 378.440359
-0.901339 -0.574889 1.237246 70.000000 16 378.440361
-0.939923 -0.602966 1.177175 62.000000 15 378.440319
-0.985551 -0.632233 1.026190 66.000000 13 378.440321
-1.022608 -0.655753 0.881071 70.000000 11 378.440324
-1.056608 -0.677552 0.743317 68.000000 9 378.440327
-1.105218 -0.708451 0.618719 66.000000 7 378.440329
-1.143390 -0.732638 0.488845 61.000000 5 378.440332
-1.178761 -0.755302 0.357269 45.000000 3 378.440334
-1.220154 -0.781525 0.222778 40.000000 1 378.440337
-0.950023 -0.607341 1.085075 69.000000 14 378.440345
