# .PCD v.7 - Point Cloud Data file format
VERSION .7
FIELDS x y z normal_x normal_y normal_z
SIZE 4 4 4 4 2 4
TYPE F F F F U F
COUNT 1 1 1 1 1 1
WIDTH 907
HEIGHT 1
VIEWPOINT 0 0 0 1 0 0 0
POINTS 907
DATA ascii
-1.044082 -0.617966 0.798285 73.000000 10 456.741803
-1.078928 -0.638588 0.667038 69.000000 8 456.741805
-1.122256 -0.663968 0.542723 68.000000 6 456.741808
-1.159023 -0.685447 0.415485 53.000000 4 456.741810
-1.202054 -0.710613 0.286729 38.000000 2 456.741813
-1.234192 -0.729321 0.151505 68.000000 0 456.741816
-0.047263 -0.016849 4.199114 32.000000 31 456.741826
-0.401971 -0.223538 2.924465 52.000000 28 456.741829
-0.484813 -0.268866 2.688740 47.000000 27 456.741831
-0.604367 -0.350743 2.279719 56.000000 25 456.741834
-0.693172 -0.407356 1.953690 59.000000 23 456.741836
-0.772726 -0.454281 1.709297 58.000000 21 456.741839
-0.839921 -0.493779 1.503605 62.000000 19 456.741842
-0.888793 -0.522507 1.310581 64.000000 17 456.741844
-0.198962 -0.098516 3.668262 38.000000 30 456.741852
-0.314049 -0.165141 3.261059 39.000000 29 456.741854
-0.544731 -0.311051 2.450963 53.000000 26 456.741857
-0.653112 -0.382287 2.112159 58.000000 24 456.741860
-0.736150 -0.431227 1.827091 73.000000 22 456.741862
-0.804755 -0.471596 1.595879 62.000000 20 456.741865
-0.863025 -0.505739 1.398836 66.000000 18 456.741867
-0.910666 -0.533653 1.222546 72.000000 16 456.741870
-0.946620 -0.558056 1.159652 66.000000 15 456.741827
-0.985205 -0.580799 1.004225 67.000000 13 456.741830
-1.024983 -0.604008 0.864622 71.000000 11 456.741833
-1.066127 -0.628251 0.734045 67.000000 9 456.741835
-1.111162 -0.654528 0.609354 69.000000 7 456.741838
-1.145388 -0.674419 0.480390 52.000000 5 456.741840
-1.180993 -0.695383 0.351673 39.000000 3 456.741843
-1.222991 -0.719825 0.220101 40.000000 1 456.741845
-0.962579 -0.565428 1.075100 67.000000 14 456.741853
-1.002499 -0.588874 0.930128 71.000000 12 456.741856
-1.042515 -0.612135 0.795752 73.000000 10 456.741858
-1.081151 -0.634818 0.667038 69.000000 8 456.741861
-1.120494 -0.657656 0.541080 65.000000 6 456.741863
-1.157217 -0.678938 0.414313 51.000000 4 456.741866
-1.204528 -0.706412 0.286729 38.000000 2 456.741869
-1.236731 -0.725008 0.151505 68.000000 0 456.741871
-0.047321 -0.016684 4.199114 31.000000 31 456.741882
-0.402749 -0.222134 2.924465 52.000000 28 456.741884
-0.484856 -0.266682 2.683845 47.000000 27 456.741887
-0.605587 -0.348631 2.279719 56.000000 25 456.741889
-0.692902 -0.403950 1.949087 62.000000 23 456.741892
-0.772238 -0.450374 1.704908 54.000000 21 456.741895
-0.841639 -0.490844 1.503605 62.000000 19 456.741897
-0.890612 -0.519401 1.310581 64.000000 17 456.741900
-0.199304 -0.097821 3.668262 38.000000 30 456.741907
-0.314150 -0.163798 3.256087 39.000000 29 456.741910
-0.545814 -0.309148 2.450963 53.000000 26 456.741913
-0.654443 -0.380005 2.112159 56.000000 24 456.741915
-0.735768 -0.427560 1.822590 71.000000 22 456.741918
-0.806396 -0.468784 1.595879 60.000000 20 456.741920
-0.864785 -0.502723 1.398836 66.000000 18 456.741923
-0.909592 -0.528767 1.218870 70.000000 16 456.741925
-0.945484 -0.552948 1.156147 66.000000 15 456.741883
-0.987226 -0.577357 1.004225 68.000000 13 456.741886
-1.023475 -0.598316 0.861880 71.000000 11 456.741888
-1.064489 -0.622290 0.731727 69.000000 9 456.741891
-1.109438 -0.648306 0.607481 69.000000 7 456.741893
-1.147735 -0.670416 0.480390 54.000000 5 456.741896
-1.179171 -0.688779 0.350741 39.000000 3 456.741898
-1.221196 -0.713041 0.219655 39.000000 1 456.741901
-0.961320 -0.560185 1.071775 67.000000 14 456.741909
-1.001056 -0.583336 0.927184 71.000000 12 456.741911
-1.044645 -0.608492 0.795752 73.000000 10 456.741914
-1.079438 -0.628755 0.664940 71.000000 8 456.741916
-1.122783 -0.653741 0.541080 67.000000 6 456.741919
-1.159579 -0.674894 0.414313 53.000000 4 456.741921
-1.202706 -0.699713 0.286039 38.000000 2 456.741924
-1.239254 -0.720687 0.151505 68.000000 0 456.741927
-0.047379 -0.016519 4.199114 31.000000 31 456.741937
-0.402840 -0.220354 2.919526 52.000000 28 456.741940
-0.485784 -0.264987 2.683845 47.000000 27 456.741942
-0.605504 -0.345775 2.274947 56.000000 25 456.741945
-0.694308 -0.401529 1.949087 62.000000 23 456.741947
-0.773805 -0.447675 1.704908 54.000000 21 456.741950
-0.840912 -0.486494 1.499472 64.000000 19 456.741952
-0.892420 -0.516289 1.310581 64.000000 17 456.741955
-0.199384 -0.096999 3.663270 38.000000 30 456.741963
-0.314720 -0.162701 3.256087 39.000000 29 456.741965
-0.546889 -0.307241 2.450963 55.000000 26 456.741968
-0.654270 -0.376857 2.107467 56.000000 24 456.741970
-0.737256 -0.424990 1.822590 71.000000 22 456.741973
-0.805768 -0.464663 1.591613 60.000000 20 456.741975
-0.863924 -0.498196 1.394846 62.000000 18 456.741978
-0.911432 -0.525589 1.218870 70.000000 16 456.741981
-0.947408 -0.549644 1.156147 64.000000 15 456.741938
-0.989235 -0.573907 1.004225 68.000000 13 456.741941
-1.025557 -0.594740 0.861880 71.000000 11 456.741943
-1.066655 -0.618570 0.731727 67.000000 9 456.741946
-1.111694 -0.644429 0.607481 69.000000 7 456.741949
-1.145917 -0.664001 0.478980 50.000000 5 456.741951
-1.177318 -0.682196 0.349808 39.000000 3 456.741954
-1.219368 -0.706277 0.219209 39.000000 1 456.741956
-0.963270 -0.556826 1.071775 69.000000 14 456.741964
-1.003086 -0.579838 0.927184 71.000000 12 456.741967
-1.043030 -0.602685 0.793220 73.000000 10 456.741969
-1.081626 -0.624984 0.664940 71.000000 8 456.741972
-1.120969 -0.647456 0.539438 65.000000 6 456.741974
-1.157719 -0.668412 0.413140 51.000000 4 456.741977
-1.200852 -0.693035 0.285349 38.000000 2 456.741979
-1.241762 -0.716357 0.151505 68.000000 0 456.741982
-0.047437 -0.016353 4.199114 32.000000 31 456.741993
-0.403607 -0.218947 2.919526 53.000000 28 456.741995
-0.485810 -0.262806 2.678950 47.000000 27 456.741998
-0.606707 -0.343659 2.274947 55.000000 25 456.742000
-0.694011 -0.398131 1.944485 62.000000 23 456.742003
-0.773285 -0.443779 1.700520 54.000000 21 456.742005
-0.842605 -0.483556 1.499472 62.000000 19 456.742008
-0.891436 -0.511576 1.306745 66.000000 17 456.742010
-0.199721 -0.096303 3.663270 38.000000 30 456.742018
-0.315286 -0.161601 3.256087 39.000000 29 456.742021
-0.546860 -0.304718 2.446124 55.000000 26 456.742023
-0.655582 -0.374571 2.107467 56.000000 24 456.742026
-0.738735 -0.422413 1.822590 71.000000 22 456.742028
-0.807385 -0.461848 1.591613 60.000000 20 456.742031
-0.865658 -0.495177 1.394846 66.000000 18 456.742034
-0.910319 -0.520721 1.215195 70.000000 16 456.742036
-0.946230 -0.544555 1.152643 66.000000 15 456.741994
-0.987859 -0.568509 1.001088 68.000000 13 456.741996
-1.027627 -0.591156 0.861880 71.000000 11 456.741999
-1.064968 -0.612634 0.729409 67.000000 9 456.742001
-1.109918 -0.638234 0.605608 69.000000 7 456.742004
-1.144068 -0.657606 0.477571 50.000000 5 456.742007
-1.175433 -0.675634 0.348875 39.000000 3 456.742009
-1.221826 -0.702017 0.219209 39.000000 1 456.742012
-0.961968 -0.551602 1.068451 71.000000 14 456.742019
-1.001598 -0.574323 0.924241 69.000000 12 456.742022
-1.045127 -0.599041 0.793220 73.000000 10 456.742025
-1.079864 -0.618947 0.662842 71.000000 8 456.742027
-1.123222 -0.643539 0.539438 65.000000 6 456.742030
-1.160045 -0.664367 0.413140 51.000000 4 456.742032
-1.203263 -0.688839 0.285349 38.000000 2 456.742035
-1.239919 -0.709537 0.151303 68.000000 0 456.742037
-0.047451 -0.016177 4.194114 32.000000 31 456.742048
-0.404369 -0.217537 2.919526 53.000000 28 456.742051
-0.486724 -0.261109 2.678950 49.000000 27 456.742053
-0.606601 -0.340808 2.270176 55.000000 25 456.742056
-0.695396 -0.395706 1.944485 62.000000 23 456.742058
-0.774830 -0.441077 1.700520 54.000000 21 456.742061
-0.841842 -0.479220 1.495340 60.000000 19 456.742063
-0.893216 -0.508461 1.306745 66.000000 17 456.742066
-0.199794 -0.095481 3.658278 38.000000 30 456.742074
-0.315372 -0.160259 3.251116 39.000000 29 456.742076
-0.547920 -0.302807 2.446124 56.000000 26 456.742079
-0.655384 -0.371429 2.102774 56.000000 24 456.742081
-0.738310 -0.418758 1.818089 73.000000 22 456.742084
-0.806724 -0.457739 1.587347 60.000000 20 456.742087
-0.864760 -0.490665 1.390857 66.000000 18 456.742089
-0.912131 -0.517540 1.215195 67.000000 16 456.742092
-0.948125 -0.541249 1.152643 64.000000 15 456.742049
-0.989837 -0.565057 1.001088 68.000000 13 456.742052
-1.026052 -0.585493 0.859139 71.000000 11 456.742054
-1.067099 -0.608913 0.729409 69.000000 9 456.742057
-1.112139 -0.634356 0.605608 69.000000 7 456.742060
-1.142190 -0.651232 0.476162 52.000000 5 456.742062
-1.177785 -0.671527 0.348875 39.000000 3 456.742065
-1.219942 -0.695282 0.218763 39.000000 1 456.742067
-0.963888 -0.548241 1.068451 69.000000 14 456.742075
-1.003596 -0.570823 0.924241 71.000000 12 456.742078
-1.047212 -0.595389 0.793220 73.000000 10 456.742080
-1.082018 -0.615174 0.662842 71.000000 8 456.742083
-1.121356 -0.637281 0.537795 64.000000 6 456.742085
-1.158131 -0.657913 0.411968 51.000000 4 456.742088
-1.201354 -0.682190 0.284659 38.000000 2 456.742090
-1.242388 -0.705204 0.151303 68.000000 0 456.742093
-0.047507 -0.016011 4.194114 31.000000 31 456.742104
-0.405126 -0.216124 2.919526 54.000000 28 456.742106
-0.487633 -0.259408 2.678950 49.000000 27 456.742109
-0.607787 -0.338688 2.270176 55.000000 25 456.742111
-0.695072 -0.392316 1.939882 64.000000 23 456.742114
-0.774278 -0.437192 1.696131 56.000000 21 456.742116
-0.843510 -0.476278 1.495340 62.000000 19 456.742119
-0.892194 -0.503763 1.302908 66.000000 17 456.742121
-0.200126 -0.094783 3.658278 39.000000 30 456.742129
-0.315929 -0.159157 3.251116 39.000000 29 456.742132
-0.547870 -0.300289 2.441284 54.000000 26 456.742134
-0.656676 -0.369139 2.102774 56.000000 24 456.742137
-0.739768 -0.416178 1.818089 73.000000 22 456.742139
-0.808317 -0.454921 1.587347 60.000000 20 456.742142
-0.866467 -0.487643 1.390857 64.000000 18 456.742145
-0.910977 -0.512690 1.211520 69.000000 16 456.742147
-0.946906 -0.536179 1.149138 64.000000 15 456.742105
-0.991804 -0.561598 1.001088 68.000000 13 456.742107
-1.028090 -0.581908 0.859139 71.000000 11 456.742110
-1.069219 -0.605184 0.729409 69.000000 9 456.742113
-1.110312 -0.628187 0.603735 69.000000 7 456.742115
-1.144456 -0.647241 0.476162 52.000000 5 456.742118
-1.175846 -0.664994 0.347943 39.000000 3 456.742120
-1.222362 -0.691019 0.218763 39.000000 1 456.742123
-0.962543 -0.543038 1.065126 67.000000 14 456.742131
-1.002062 -0.565330 0.921298 73.000000 12 456.742133
-1.045529 -0.589612 0.790687 71.000000 10 456.742136
-1.080205 -0.609164 0.660744 71.000000 8 456.742138
-1.123574 -0.633363 0.537795 64.000000 6 456.742141
-1.160420 -0.653866 0.411968 51.000000 4 456.742143
-1.203728 -0.677992 0.284659 37.000000 2 456.742146
-1.240489 -0.698412 0.151102 68.000000 0 456.742148
-0.047520 -0.015835 4.189114 31.000000 31 456.742159
-0.405878 -0.214708 2.919526 52.000000 28 456.742162
-0.488535 -0.257705 2.678950 49.000000 27 456.742164
-0.607658 -0.335842 2.265404 55.000000 25 456.742167
-0.696437 -0.389887 1.939882 61.000000 23 456.742169
-0.775800 -0.434486 1.696131 56.000000 21 456.742172
-0.845167 -0.473331 1.495340 62.000000 19 456.742174
-0.893947 -0.500646 1.302908 64.000000 17 456.742177
-0.200456 -0.094084 3.658278 38.000000 30 456.742185
-0.316483 -0.158053 3.251116 39.000000 29 456.742187
-0.548915 -0.298374 2.441284 54.000000 26 456.742190
-0.657961 -0.366845 2.102774 56.000000 24 456.742192
-0.741216 -0.413593 1.818089 74.000000 22 456.742195
-0.807623 -0.450825 1.583081 60.000000 20 456.742198
-0.865532 -0.483147 1.386867 64.000000 18 456.742200
-0.912762 -0.509507 1.211520 71.000000 16 456.742203
-0.948772 -0.532870 1.149138 64.000000 15 456.742160
-0.990364 -0.556227 0.997950 68.000000 13 456.742163
-1.026469 -0.576269 0.856398 73.000000 11 456.742165
-1.067461 -0.599279 0.727091 67.000000 9 456.742168
-1.112498 -0.624308 0.603735 69.000000 7 456.742171
-1.142524 -0.640895 0.474753 54.000000 5 456.742173
-1.178160 -0.660885 0.347943 39.000000 3 456.742176
-1.224767 -0.686748 0.218763 38.000000 1 456.742178
-0.964433 -0.539675 1.065126 69.000000 14 456.742186
-1.004030 -0.561829 0.921298 71.000000 12 456.742189
-1.047580 -0.585959 0.790687 71.000000 10 456.742191
-1.082325 -0.605390 0.660744 73.000000 8 456.742194
-1.121656 -0.627132 0.536152 62.000000 6 456.742196
-1.162695 -0.649811 0.411968 51.000000 4 456.742199
-1.201764 -0.671371 0.283969 37.000000 2 456.742201
-1.242919 -0.694078 0.151102 67.000000 0 456.742204
-0.047575 -0.015669 4.189114 26.000000 31 456.742215
-0.406625 -0.213290 2.919526 52.000000 28 456.742217
-0.488529 -0.255526 2.674055 47.000000 27 456.742220
-0.608826 -0.333719 2.265404 55.000000 25 456.742222
-0.697794 -0.387454 1.939882 63.000000 23 456.742225
-0.777312 -0.431776 1.696131 58.000000 21 456.742227
-0.846814 -0.470378 1.495340 60.000000 19 456.742230
-0.895689 -0.497523 1.302908 64.000000 17 456.742233
-0.200783 -0.093384 3.658278 38.000000 30 456.742240
-0.317032 -0.156947 3.251116 40.000000 29 456.742243
-0.549954 -0.296456 2.441284 54.000000 26 456.742245
-0.657727 -0.363711 2.098081 56.000000 24 456.742248
-0.740750 -0.409949 1.813589 73.000000 22 456.742251
-0.809192 -0.448003 1.583081 60.000000 20 456.742253
-0.867214 -0.480123 1.386867 62.000000 18 456.742256
-0.911568 -0.504676 1.207845 71.000000 16 456.742258
-0.950626 -0.529555 1.149138 64.000000 15 456.742216
-0.992299 -0.552766 0.997950 68.000000 13 456.742218
-1.028474 -0.572682 0.856398 71.000000 11 456.742221
-1.069547 -0.595550 0.727091 69.000000 9 456.742224
-1.110619 -0.618166 0.601862 71.000000 7 456.742226
-1.144754 -0.636903 0.474753 54.000000 5 456.742229
-1.176167 -0.654380 0.347010 39.000000 3 456.742231
-1.222804 -0.680048 0.218316 38.000000 1 456.742234
-0.963046 -0.534493 1.061801 69.000000 14 456.742242
-1.005985 -0.558321 0.921298 71.000000 12 456.742244
-1.045850 -0.580207 0.788155 71.000000 10 456.742247
-1.084432 -0.601608 0.660744 73.000000 8 456.742249
-1.123838 -0.623213 0.536152 62.000000 6 456.742252
-1.160705 -0.643392 0.410796 51.000000 4 456.742254
-1.204100 -0.667172 0.283969 37.000000 2 456.742257
-1.240964 -0.687314 0.150900 68.000000 0 456.742259
-0.047587 -0.015492 4.184114 26.000000 31 456.742270
-0.407367 -0.211870 2.919526 52.000000 28 456.742273
-0.489418 -0.253820 2.674055 49.000000 27 456.742275
-0.609988 -0.331592 2.265404 55.000000 25 456.742278
-0.697431 -0.384074 1.935280 63.000000 23 456.742280
-0.776716 -0.427904 1.691743 58.000000 21 456.742283
-0.845986 -0.466061 1.491207 62.000000 19 456.742285
-0.894612 -0.492846 1.299071 65.000000 17 456.742288
-0.200844 -0.092563 3.653286 38.000000 30 456.742296
-0.317578 -0.155840 3.251116 39.000000 29 456.742298
-0.550985 -0.294535 2.441284 54.000000 26 456.742301
-0.658993 -0.361413 2.098081 58.000000 24 456.742303
-0.742176 -0.407361 1.813589 71.000000 22 456.742306
-0.810751 -0.445176 1.583081 60.000000 20 456.742309
-0.866242 -0.475642 1.382878 60.000000 18 456.742311
-0.913325 -0.501491 1.207845 71.000000 16 456.742314
-0.949347 -0.524509 1.145634 62.000000 15 456.742271
-0.990815 -0.547417 0.994812 68.000000 13 456.742274
-1.026806 -0.567067 0.853656 71.000000 11 456.742277
-1.067741 -0.589671 0.724773 68.000000 9 456.742279
-1.112770 -0.614285 0.601862 71.000000 7 456.742282
-1.146971 -0.632904 0.474753 52.000000 5 456.742284
-1.178444 -0.650271 0.347010 39.000000 3 456.742287
-1.225170 -0.675776 0.218316 39.000000 1 456.742289
-0.964905 -0.531128 1.061801 67.000000 14 456.742297
-1.007927 -0.554806 0.921298 71.000000 12 456.742300
-1.047868 -0.576553 0.788155 71.000000 10 456.742302
-1.082549 -0.595631 0.658646 73.000000 8 456.742305
-1.121869 -0.617010 0.534510 62.000000 6 456.742307
-1.162944 -0.639337 0.410796 51.000000 4 456.742310
-1.206422 -0.662965 0.283969 37.000000 2 456.742312
-1.243356 -0.682978 0.150900 68.000000 0 456.742315
-0.047684 -0.015336 4.189114 32.000000 31 456.742326
-0.407413 -0.210091 2.914586 49.000000 28 456.742328
-0.490301 -0.252110 2.674055 47.000000 27 456.742331
-0.611141 -0.329461 2.265404 56.000000 25 456.742333
-0.698767 -0.381637 1.935280 63.000000 23 456.742336
-0.778205 -0.425190 1.691743 56.000000 21 456.742338
-0.847608 -0.463105 1.491207 62.000000 19 456.742341
-0.896327 -0.489720 1.299071 65.000000 17 456.742344
-0.201166 -0.091861 3.653286 39.000000 30 456.742351
-0.317640 -0.154498 3.246144 39.000000 29 456.742354
-0.552010 -0.292610 2.441284 56.000000 26 456.742356
-0.660250 -0.359110 2.098081 56.000000 24 456.742359
-0.741681 -0.403727 1.809088 71.000000 22 456.742362
-0.810009 -0.441096 1.578815 60.000000 20 456.742364
-0.867897 -0.472615 1.382878 60.000000 18 456.742367
-0.915070 -0.498300 1.207845 71.000000 16 456.742369
-0.951172 -0.521192 1.145634 62.000000 15 456.742327
-0.992720 -0.543955 0.994812 68.000000 13 456.742329
-1.028780 -0.563480 0.853656 71.000000 11 456.742332
-1.069793 -0.585940 0.724773 68.000000 9 456.742335
-1.110842 -0.608171 0.599989 69.000000 7 456.742337
-1.144965 -0.626593 0.473344 52.000000 5 456.742340
-1.180707 -0.646153 0.347010 39.000000 3 456.742342
-1.227522 -0.671495 0.218316 39.000000 1 456.742345
-0.966754 -0.527757 1.061801 69.000000 14 456.742353
-1.006310 -0.549348 0.918355 73.000000 12 456.742355
-1.049875 -0.572892 0.788155 71.000000 10 456.742358
-1.084621 -0.591849 0.658646 73.000000 8 456.742360
-1.124016 -0.613091 0.534510 62.000000 6 456.742363
-1.165169 -0.635274 0.410796 49.000000 4 456.742365
-1.204380 -0.656380 0.283280 37.000000 2 456.742368
-1.241345 -0.676244 0.150699 68.000000 0 456.742371
-0.047737 -0.015170 4.189114 32.000000 31 456.742381
-0.408144 -0.208667 2.914586 49.000000 28 456.742384
-0.491178 -0.250397 2.674055 47.000000 27 456.742386
-0.610970 -0.326621 2.260632 56.000000 25 456.742389
-0.700095 -0.379195 1.935280 65.000000 23 456.742391
-0.777578 -0.421330 1.687354 56.000000 21 456.742394
-0.849219 -0.460144 1.491207 62.000000 19 456.742397
-0.895212 -0.485061 1.295234 65.000000 17 456.742399
-0.201485 -0.091158 3.653286 39.000000 30 456.742407
-0.318177 -0.153388 3.246144 39.000000 29 456.742409
-0.551914 -0.290096 2.436445 56.000000 26 456.742412
-0.659981 -0.355984 2.093388 56.000000 24 456.742415
-0.743086 -0.401135 1.809088 73.000000 22 456.742417
-0.811544 -0.438266 1.578815 62.000000 20 456.742420
-0.866890 -0.468151 1.378888 62.000000 18 456.742422
-0.913820 -0.493491 1.204170 69.000000 16 456.742425
-0.949852 -0.516166 1.142129 66.000000 15 456.742382
-0.994613 -0.540486 0.994812 65.000000 13 456.742385
-1.027066 -0.557889 0.850915 71.000000 11 456.742388
-1.071832 -0.582202 0.724773 68.000000 9 456.742390
-1.112958 -0.604290 0.599989 69.000000 7 456.742393
-1.147145 -0.622592 0.473344 54.000000 5 456.742395
-1.182955 -0.642028 0.347010 39.000000 3 456.742398
-1.225481 -0.664831 0.217870 39.000000 1 456.742400
-0.965306 -0.522601 1.058476 69.000000 14 456.742408
-1.008222 -0.545832 0.918355 71.000000 12 456.742411
-1.048076 -0.567171 0.785622 71.000000 10 456.742413
-1.086681 -0.588059 0.658646 71.000000 8 456.742416
-1.121995 -0.606916 0.532867 62.000000 6 456.742418
-1.163104 -0.628891 0.409623 51.000000 4 456.742421
-1.206664 -0.652172 0.283280 37.000000 2 456.742423
-1.243698 -0.671907 0.150699 66.000000 0 456.742426
-0.047790 -0.015003 4.189114 32.000000 31 456.742437
-0.408870 -0.207242 2.914586 52.000000 28 456.742439
-0.491140 -0.248222 2.669159 40.000000 27 456.742442
-0.612107 -0.324487 2.260632 55.000000 25 456.742444
-0.699693 -0.375825 1.930677 62.000000 23 456.742447
-0.779044 -0.418613 1.687354 56.000000 21 456.742449
-0.848341 -0.455845 1.487074 62.000000 19 456.742452
-0.896900 -0.481933 1.295234 65.000000 17 456.742455
-0.201802 -0.090454 3.653286 38.000000 30 456.742462
-0.318711 -0.152276 3.246144 39.000000 29 456.742465
-0.552924 -0.288168 2.436445 56.000000 26 456.742467
-0.661220 -0.353678 2.093388 58.000000 24 456.742470
-0.742561 -0.397511 1.804587 73.000000 22 456.742473
-0.813069 -0.435430 1.578815 60.000000 20 456.742475
-0.868519 -0.465122 1.378888 64.000000 18 456.742478
-0.915537 -0.490299 1.204170 69.000000 16 456.742480
-0.951648 -0.512847 1.142129 66.000000 15 456.742438
-0.996493 -0.537011 0.994812 67.000000 13 456.742441
-1.029007 -0.554301 0.850915 71.000000 11 456.742443
-1.073857 -0.578457 0.724773 70.000000 9 456.742446
-1.115060 -0.600401 0.599989 71.000000 7 456.742448
-1.145087 -0.616311 0.471934 54.000000 5 456.742451
-1.180863 -0.635567 0.346077 38.000000 3 456.742453
-1.227794 -0.660549 0.217870 39.000000 1 456.742456
-0.967124 -0.519228 1.058476 69.000000 14 456.742464
-1.006559 -0.540397 0.915412 71.000000 12 456.742466
-1.050050 -0.563510 0.785622 71.000000 10 456.742469
-1.084727 -0.582116 0.656548 73.000000 8 456.742471
-1.124107 -0.602996 0.532867 64.000000 6 456.742474
-1.165292 -0.624827 0.409623 51.000000 4 456.742476
-1.204569 -0.645616 0.282590 37.000000 2 456.742479
-1.241632 -0.665202 0.150497 68.000000 0 456.742482
-0.047884 -0.014846 4.194114 32.000000 31 456.742492
-0.409591 -0.205813 2.914586 53.000000 28 456.742495
-0.492004 -0.246506 2.669159 40.000000 27 456.742497
-0.611914 -0.321653 2.255861 55.000000 25 456.742500
-0.701001 -0.373380 1.930677 64.000000 23 456.742502
-0.778386 -0.414764 1.682965 56.000000 21 456.742505
-0.849927 -0.452881 1.487074 64.000000 19 456.742508
-0.895748 -0.477292 1.291397 63.000000 17 456.742510
-0.201852 -0.089633 3.648295 39.000000 30 456.742518
-0.319240 -0.151163 3.246144 39.000000 29 456.742520
-0.553926 -0.286236 2.436445 54.000000 26 456.742523
-0.660926 -0.350559 2.088696 56.000000 24 456.742526
-0.743944 -0.394917 1.804587 71.000000 22 456.742528
-0.812280 -0.431366 1.574549 58.000000 20 456.742531
-0.867475 -0.460674 1.374899 64.000000 18 456.742533
-0.917243 -0.487100 1.204170 69.000000 16 456.742536
-0.950287 -0.507841 1.138625 66.000000 15 456.742493
-0.994928 -0.531695 0.991674 68.000000 13 456.742496
-1.030936 -0.550705 0.850915 69.000000 11 456.742499
-1.071962 -0.572618 0.722455 68.000000 9 456.742501
-1.113060 -0.594321 0.598116 69.000000 7 456.742504
-1.147231 -0.612310 0.471934 52.000000 5 456.742506
-1.183075 -0.631441 0.346077 38.000000 3 456.742509
-1.225699 -0.653915 0.217424 39.000000 1 456.742511
-0.968931 -0.515849 1.058476 69.000000 14 456.742519
-1.008440 -0.536880 0.915412 71.000000 12 456.742522
-1.048204 -0.557815 0.783090 73.000000 10 456.742524
-1.086753 -0.578326 0.656548 73.000000 8 456.742527
-1.126205 -0.599069 0.532867 64.000000 6 456.742529
-1.167466 -0.620755 0.409623 49.000000 4 456.742532
-1.206815 -0.641408 0.282590 37.000000 2 456.742535
-1.239534 -0.658520 0.150296 69.000000 0 456.742537
-0.047936 -0.014678 4.194114 32.000000 31 456.742548
-0.410306 -0.204382 2.914586 54.000000 28 456.742550
-0.491949 -0.244335 2.664264 47.000000 27 456.742553
-0.613033 -0.319515 2.255861 53.000000 25 456.742555
-0.702300 -0.370931 1.930677 64.000000 23 456.742558
-0.779829 -0.412045 1.682965 56.000000 21 456.742561
-0.849015 -0.448597 1.482941 62.000000 19 456.742563
-0.897408 -0.474163 1.291397 63.000000 17 456.742566
-0.202163 -0.088928 3.648295 39.000000 30 456.742573
-0.319766 -0.150048 3.246144 40.000000 29 456.742576
-0.554922 -0.284301 2.436445 56.000000 26 456.742579
-0.660618 -0.347447 2.084003 54.000000 24 456.742581
-0.745318 -0.392317 1.804587 71.000000 22 456.742584
-0.813781 -0.428528 1.574549 60.000000 20 456.742586
-0.869078 -0.457643 1.374899 64.000000 18 456.742589
-0.918938 -0.483895 1.204170 69.000000 16 456.742591
-0.952054 -0.504521 1.138625 66.000000 15 456.742549
-0.996778 -0.528218 0.991674 68.000000 13 456.742552
-1.032852 -0.547103 0.850915 69.000000 11 456.742554
-1.073955 -0.568873 0.722455 70.000000 9 456.742557
-1.115128 -0.590433 0.598116 71.000000 7 456.742559
-1.145121 -0.606058 0.470525 52.000000 5 456.742562
-1.185272 -0.627307 0.346077 38.000000 3 456.742564
-1.227974 -0.649633 0.217424 39.000000 1 456.742567
-0.967423 -0.510721 1.055151 69.000000 14 456.742575
-1.006733 -0.531470 0.912469 73.000000 12 456.742577
-1.050145 -0.554153 0.783090 73.000000 10 456.742580
-1.084751 -0.572411 0.654450 73.000000 8 456.742582
-1.124112 -0.592931 0.531224 64.000000 6 456.742585
-1.165326 -0.614410 0.408451 49.000000 4 456.742587
-1.204666 -0.634882 0.281900 36.000000 2 456.742590
-1.241825 -0.654189 0.150296 68.000000 0 456.742593
-0.047987 -0.014511 4.194114 32.000000 31 456.742604
-0.411017 -0.202949 2.914586 54.000000 28 456.742607
-0.492799 -0.242616 2.664264 49.000000 27 456.742609
-0.612817 -0.316688 2.251089 53.000000 25 456.742612
-0.701860 -0.367571 1.926075 64.000000 23 456.742614
-0.781262 -0.409320 1.682965 56.000000 21 456.742617
-0.850576 -0.445630 1.482941 62.000000 19 456.742619
-0.899058 -0.471027 1.291397 65.000000 17 456.742622
-0.202472 -0.088222 3.648295 39.000000 30 456.742630
-0.320288 -0.148931 3.246144 40.000000 29 456.742632
-0.554789 -0.281793 2.431606 57.000000 26 456.742635
-0.661827 -0.345139 2.084003 54.000000 24 456.742637
-0.746683 -0.389713 1.804587 73.000000 22 456.742640
-0.812960 -0.424478 1.570283 60.000000 20 456.742642
-0.870670 -0.454607 1.374899 62.000000 18 456.742645
-0.920622 -0.480684 1.204170 69.000000 16 456.742648
-0.950652 -0.499536 1.135120 66.000000 15 456.742605
-0.998616 -0.524736 0.991674 70.000000 13 456.742608
-1.031053 -0.541550 0.848173 71.000000 11 456.742610
-1.072012 -0.563060 0.720137 68.000000 9 456.742613
-1.117182 -0.586536 0.598116 66.000000 7 456.742616
-1.147230 -0.602057 0.470525 52.000000 5 456.742618
-1.183105 -0.620883 0.345145 38.000000 3 456.742621
-1.225824 -0.643029 0.216978 39.000000 1 456.742623
-0.969200 -0.507341 1.055151 69.000000 14 456.742631
-1.008582 -0.527952 0.912469 71.000000 12 456.742634
-1.048253 -0.548485 0.780558 73.000000 10 456.742636
-1.086742 -0.568621 0.654450 73.000000 8 456.742639
-1.126175 -0.589003 0.531224 64.000000 6 456.742641
-1.167463 -0.610338 0.408451 51.000000 4 456.742644
-1.206874 -0.630673 0.281900 36.000000 2 456.742646
-1.239673 -0.647537 0.150094 69.000000 0 456.742649
-0.048037 -0.014343 4.194114 32.000000 31 456.742660
-0.411025 -0.201172 2.909647 53.000000 28 456.742662
-0.493643 -0.240895 2.664264 49.000000 27 456.742665
-0.613919 -0.314547 2.251089 55.000000 25 456.742667
-0.703139 -0.365119 1.926075 59.000000 23 456.742670
-0.782686 -0.406590 1.682965 54.000000 21 456.742672
-0.849629 -0.441361 1.478808 64.000000 19 456.742675
-0.900697 -0.467886 1.291397 65.000000 17 456.742677
-0.202779 -0.087514 3.648295 38.000000 30 456.742685
-0.320806 -0.147812 3.246144 40.000000 29 456.742688
-0.555769 -0.279855 2.431606 56.000000 26 456.742690
-0.661494 -0.342034 2.079310 54.000000 24 456.742693
-0.746105 -0.386104 1.800086 73.000000 22 456.742695
-0.814437 -0.421638 1.570283 60.000000 20 456.742698
-0.869575 -0.450179 1.370909 62.000000 18 456.742701
-0.919283 -0.475909 1.200495 70.000000 16 456.742703
-0.952390 -0.496214 1.135120 66.000000 15 456.742661
-0.996989 -0.519448 0.988537 70.000000 13 456.742663
-1.032937 -0.537948 0.848173 71.000000 11 456.742666
-1.073971 -0.559315 0.720137 68.000000 9 456.742668
-1.115110 -0.580492 0.596243 64.000000 7 456.742671
-1.145069 -0.595834 0.469116 52.000000 5 456.742674
-1.185265 -0.616750 0.345145 38.000000 3 456.742676
-1.228061 -0.638746 0.216978 39.000000 1 456.742679
-0.967651 -0.502234 1.051826 69.000000 14 456.742686
-1.006831 -0.522567 0.909525 71.000000 12 456.742689
-1.050161 -0.544823 0.780558 73.000000 10 456.742692
-1.084692 -0.562734 0.652352 73.000000 8 456.742694
-1.128224 -0.585069 0.531224 64.000000 6 456.742697
-1.169587 -0.606259 0.408451 49.000000 4 456.742699
-1.204671 -0.624179 0.281210 36.000000 2 456.742702
-1.241926 -0.643206 0.150094 69.000000 0 456.742704
-0.048087 -0.014176 4.194114 32.000000 31 456.742715
-0.411725 -0.199736 2.909647 53.000000 28 456.742718
-0.493563 -0.238727 2.659369 49.000000 27 456.742720
-0.615013 -0.312402 2.251089 53.000000 25 456.742723
-0.704409 -0.362662 1.926075 59.000000 23 456.742725
-0.781971 -0.402759 1.678577 56.000000 21 456.742728
-0.851164 -0.438393 1.478808 64.000000 19 456.742730
-0.899474 -0.463271 1.287560 65.000000 17 456.742733
-0.203068 -0.086842 3.648295 38.000000 30 456.742741
-0.320808 -0.146526 3.241173 39.000000 29 456.742743
-0.556694 -0.278010 2.431606 56.000000 26 456.742746
-0.662625 -0.339838 2.079310 52.000000 24 456.742748
-0.747448 -0.383497 1.800086 71.000000 22 456.742751
-0.813583 -0.417601 1.566017 60.000000 20 456.742754
-0.871141 -0.447141 1.370909 64.000000 18 456.742756
-0.920856 -0.472858 1.200495 68.000000 16 456.742759
-0.954117 -0.492887 1.135120 66.000000 15 456.742716
-0.998797 -0.515965 0.988537 70.000000 13 456.742719
-1.031094 -0.532421 0.845432 71.000000 11 456.742721
-1.075916 -0.555563 0.720137 70.000000 9 456.742724
-1.117029 -0.576791 0.596243 64.000000 7 456.742727
-1.147038 -0.592034 0.469116 52.000000 5 456.742729
-1.187410 -0.612609 0.345145 38.000000 3 456.742732
-1.225857 -0.632173 0.216532 39.000000 1 456.742734
-0.969398 -0.498853 1.051826 69.000000 14 456.742742
-1.008649 -0.519049 0.909525 71.000000 12 456.742745
-1.048129 -0.539365 0.778025 73.000000 10 456.742747
-1.086552 -0.559134 0.652352 73.000000 8 456.742750
-1.130158 -0.581324 0.531224 62.000000 6 456.742752
-1.171591 -0.602377 0.408451 49.000000 4 456.742755
-1.202330 -0.617917 0.280520 36.000000 2 456.742757
-1.244052 -0.639084 0.150094 69.000000 0 456.742760
-0.048134 -0.014016 4.194114 32.000000 31 456.742771
-0.412385 -0.198369 2.909647 54.000000 28 456.742773
-0.494352 -0.237089 2.659369 49.000000 27 456.742776
-0.614712 -0.309689 2.246317 53.000000 25 456.742778
-0.705608 -0.360324 1.926075 64.000000 23 456.742781
-0.783302 -0.400164 1.678577 48.000000 21 456.742783
-0.852613 -0.435568 1.478808 64.000000 19 456.742786
-0.901006 -0.460286 1.287560 65.000000 17 456.742788
-0.203370 -0.086132 3.648295 39.000000 30 456.742796
-0.321317 -0.145406 3.241173 39.000000 29 456.742799
-0.556534 -0.275507 2.426767 55.000000 26 456.742801
-0.662269 -0.336741 2.074617 54.000000 24 456.742804
-0.746775 -0.380029 1.795585 73.000000 22 456.742806
-0.814964 -0.414901 1.566017 62.000000 20 456.742809
-0.869933 -0.442882 1.366920 62.000000 18 456.742812
-0.919480 -0.468103 1.196819 68.000000 16 456.742814
-0.955746 -0.489720 1.135120 66.000000 15 456.742772
-1.000502 -0.512650 0.988537 70.000000 13 456.742774
-1.032853 -0.528999 0.845432 71.000000 11 456.742777
-1.077753 -0.551992 0.720137 70.000000 9 456.742780
-1.114909 -0.570776 0.594370 66.000000 7 456.742782
-1.149098 -0.588026 0.469116 52.000000 5 456.742785
-1.189435 -0.608668 0.345145 38.000000 3 456.742787
-1.223513 -0.625837 0.216085 39.000000 1 456.742790
-0.971047 -0.495636 1.051826 69.000000 14 456.742798
-1.010365 -0.515701 0.909525 71.000000 12 456.742800
-1.050005 -0.535703 0.778025 73.000000 10 456.742803
-1.088497 -0.555338 0.652352 71.000000 8 456.742805
-1.127973 -0.575230 0.529581 64.000000 6 456.742808
-1.169356 -0.596076 0.407279 47.000000 4 456.742810
-1.204480 -0.613716 0.280520 36.000000 2 456.742813
-1.246275 -0.634738 0.150094 69.000000 0 456.742815
-0.048182 -0.013848 4.194114 32.000000 31 456.742826
-0.412373 -0.196595 2.904708 53.000000 28 456.742829
-0.495177 -0.235362 2.659369 49.000000 27 456.742831
-0.615789 -0.307542 2.246317 53.000000 25 456.742834
-0.705118 -0.356976 1.921472 64.000000 23 456.742836
-0.784694 -0.397427 1.678577 50.000000 21 456.742839
-0.851618 -0.431318 1.474675 64.000000 19 456.742841
-0.902607 -0.457138 1.287560 65.000000 17 456.742844
-0.203670 -0.085422 3.648295 39.000000 30 456.742852
-0.321335 -0.144066 3.236202 39.000000 29 456.742854
-0.557492 -0.273563 2.426767 56.000000 26 456.742857
-0.663440 -0.334427 2.074617 54.000000 24 456.742859
-0.748097 -0.377420 1.795585 71.000000 22 456.742862
-0.814079 -0.410879 1.561751 62.000000 20 456.742865
-0.871474 -0.439843 1.366920 62.000000 18 456.742867
-0.921108 -0.464890 1.196819 68.000000 16 456.742870
-0.954270 -0.484766 1.131616 66.000000 15 456.742827
-0.998815 -0.507391 0.985399 69.000000 13 456.742830
-1.034694 -0.525390 0.845432 69.000000 11 456.742832
-1.075723 -0.546221 0.717819 68.000000 9 456.742835
-1.116894 -0.566881 0.594370 66.000000 7 456.742838
-1.146865 -0.581841 0.467707 47.000000 5 456.742840
-1.187172 -0.602289 0.344212 38.000000 3 456.742843
-1.225690 -0.621562 0.216085 39.000000 1 456.742845
-0.972771 -0.492243 1.051826 69.000000 14 456.742853
-1.008552 -0.510346 0.906582 73.000000 12 456.742856
-1.051869 -0.532034 0.778025 73.000000 10 456.742858
-1.086379 -0.549487 0.650254 74.000000 8 456.742861
-1.129974 -0.571289 0.529581 66.000000 6 456.742863
-1.171429 -0.591991 0.407279 45.000000 4 456.742866
-1.202194 -0.607275 0.279830 35.000000 2 456.742868
-1.244024 -0.628132 0.149893 69.000000 0 456.742871
-0.048230 -0.013680 4.194114 32.000000 31 456.742882
-0.413057 -0.195154 2.904708 53.000000 28 456.742884
-0.495996 -0.233632 2.659369 49.000000 27 456.742887
-0.615520 -0.304728 2.241545 51.000000 25 456.742889
-0.706360 -0.354513 1.921472 66.000000 23 456.742892
-0.783936 -0.393610 1.674188 56.000000 21 456.742894
-0.853119 -0.428342 1.474675 62.000000 19 456.742897
-0.901332 -0.452546 1.283723 65.000000 17 456.742900
-0.203699 -0.084601 3.643303 38.000000 30 456.742907
-0.321836 -0.142943 3.236202 39.000000 29 456.742910
-0.557313 -0.271066 2.421928 56.000000 26 456.742912
-0.664604 -0.332110 2.074617 54.000000 24 456.742915
-0.747462 -0.373832 1.791084 71.000000 22 456.742918
-0.815508 -0.408034 1.561751 60.000000 20 456.742920
-0.873004 -0.436798 1.366920 62.000000 18 456.742923
-0.919694 -0.460155 1.193144 68.000000 16 456.742925
-0.955956 -0.481432 1.131616 66.000000 15 456.742883
-1.000580 -0.503902 0.985399 67.000000 13 456.742885
-1.032786 -0.519895 0.842690 69.000000 11 456.742888
-1.077623 -0.542462 0.717819 68.000000 9 456.742891
-1.114725 -0.560895 0.592497 66.000000 7 456.742893
-1.148889 -0.577834 0.467707 45.000000 5 456.742896
-1.189267 -0.598142 0.344212 38.000000 3 456.742898
-1.223403 -0.615043 0.215639 39.000000 1 456.742901
-0.974483 -0.488845 1.051826 69.000000 14 456.742909
-1.010328 -0.506823 0.906582 73.000000 12 456.742911
-1.049865 -0.526427 0.775493 73.000000 10 456.742914
-1.088291 -0.545691 0.650254 71.000000 8 456.742916
-1.127740 -0.565225 0.527939 64.000000 6 456.742919
-1.169143 -0.585721 0.406106 47.000000 4 456.742921
-1.204307 -0.603075 0.279830 35.000000 2 456.742924
-1.246209 -0.623786 0.149893 69.000000 0 456.742926
-0.048278 -0.013511 4.194114 32.000000 31 456.742937
-0.413736 -0.193711 2.904708 53.000000 28 456.742940
-0.496808 -0.231900 2.659369 47.000000 27 456.742942
-0.616580 -0.302577 2.241545 53.000000 25 456.742945
-0.707593 -0.352045 1.921472 63.000000 23 456.742947
-0.785305 -0.390872 1.674188 56.000000 21 456.742950
-0.852089 -0.424108 1.470542 64.000000 19 456.742952
-0.902906 -0.449397 1.283723 67.000000 17 456.742955
-0.203993 -0.083889 3.643303 39.000000 30 456.742963
-0.322333 -0.141819 3.236202 40.000000 29 456.742965
-0.558255 -0.269119 2.421928 55.000000 26 456.742968
-0.665759 -0.329788 2.074617 54.000000 24 456.742970
-0.748762 -0.371220 1.791084 71.000000 22 456.742973
-0.814591 -0.404027 1.557485 62.000000 20 456.742976
-0.871823 -0.432409 1.362930 64.000000 18 456.742978
-0.921294 -0.456942 1.193144 70.000000 16 456.742981
-0.954440 -0.476499 1.128111 66.000000 15 456.742938
-0.998850 -0.498667 0.982261 67.000000 13 456.742941
-1.034595 -0.516287 0.842690 69.000000 11 456.742944
-1.075546 -0.536719 0.715501 68.000000 9 456.742946
-1.116676 -0.557000 0.592497 66.000000 7 456.742949
-1.150899 -0.573820 0.467707 50.000000 5 456.742951
-1.186951 -0.591795 0.343280 38.000000 3 456.742954
-1.225542 -0.610769 0.215639 39.000000 1 456.742956
-0.972840 -0.483777 1.048501 71.000000 14 456.742964
-1.008471 -0.501493 0.903639 73.000000 12 456.742967
-1.051697 -0.522759 0.775493 73.000000 10 456.742969
-1.090189 -0.541889 0.650254 71.000000 8 456.742972
-1.129706 -0.561285 0.527939 62.000000 6 456.742974
-1.171180 -0.581637 0.406106 45.000000 4 456.742977
-1.201969 -0.596665 0.279141 35.000000 2 456.742979
-1.243903 -0.617211 0.149691 69.000000 0 456.742982
-0.048325 -0.013343 4.194114 32.000000 31 456.742993
-0.413704 -0.191939 2.899769 54.000000 28 456.742995
-0.496690 -0.229737 2.654474 47.000000 27 456.742998
-0.617633 -0.300423 2.241545 53.000000 25 456.743000
-0.708817 -0.349573 1.921472 63.000000 23 456.743003
-0.784516 -0.387068 1.669799 52.000000 21 456.743005
-0.853564 -0.421131 1.470542 66.000000 19 456.743008
-0.904469 -0.446243 1.283723 67.000000 17 456.743011
-0.204284 -0.083176 3.643303 39.000000 30 456.743018
-0.322336 -0.140480 3.231230 40.000000 29 456.743021
-0.559191 -0.267168 2.421928 56.000000 26 456.743023
-0.665357 -0.326701 2.069925 54.000000 24 456.743026
-0.748099 -0.367644 1.786584 71.000000 22 456.743029
-0.815996 -0.401181 1.557485 62.000000 20 456.743031
-0.873327 -0.429363 1.362930 64.000000 18 456.743034
-0.922884 -0.453724 1.193144 68.000000 16 456.743036
-0.956098 -0.473165 1.128111 66.000000 15 456.742994
-1.000584 -0.495177 0.982261 69.000000 13 456.742996
-1.036391 -0.512672 0.842690 69.000000 11 456.742999
-1.077413 -0.532961 0.715501 68.000000 9 456.743002
-1.114458 -0.551044 0.590624 66.000000 7 456.743004
-1.148595 -0.567674 0.466298 50.000000 5 456.743007
-1.189010 -0.587648 0.343280 37.000000 3 456.743009
-1.223202 -0.604281 0.215193 39.000000 1 456.743012
-0.974523 -0.480379 1.048501 71.000000 14 456.743020
-1.010216 -0.497970 0.903639 73.000000 12 456.743022
-1.049648 -0.517179 0.772960 75.000000 10 456.743025
-1.088003 -0.536074 0.648156 71.000000 8 456.743027
-1.127422 -0.555252 0.526296 62.000000 6 456.743030
-1.168843 -0.575398 0.404934 45.000000 4 456.743032
-1.204044 -0.592466 0.279141 35.000000 2 456.743035
-1.246050 -0.612865 0.149691 69.000000 0 456.743038
-0.048371 -0.013174 4.194114 32.000000 31 456.743048
-0.414372 -0.190494 2.899769 56.000000 28 456.743051
-0.497489 -0.228002 2.654474 47.000000 27 456.743053
-0.617332 -0.297617 2.236773 55.000000 25 456.743056
-0.708278 -0.346239 1.916870 66.000000 23 456.743058
-0.785863 -0.384327 1.669799 52.000000 21 456.743061
-0.855029 -0.418149 1.470542 66.000000 19 456.743064
-0.906021 -0.443083 1.283723 65.000000 17 456.743066
-0.204573 -0.082463 3.643303 39.000000 30 456.743074
-0.322825 -0.139354 3.231230 40.000000 29 456.743076
-0.558984 -0.264677 2.417088 56.000000 26 456.743079
-0.666493 -0.324377 2.069925 54.000000 24 456.743082
-0.749378 -0.365030 1.786584 71.000000 22 456.743084
-0.817392 -0.398330 1.557485 60.000000 20 456.743087
-0.874821 -0.426312 1.362930 62.000000 18 456.743089
-0.924462 -0.450499 1.193144 68.000000 16 456.743092
-0.954542 -0.468254 1.124606 64.000000 15 456.743049
-1.002307 -0.491682 0.982261 69.000000 13 456.743052
-1.034420 -0.507210 0.839949 69.000000 11 456.743055
-1.079267 -0.529197 0.715501 70.000000 9 456.743057
-1.116375 -0.547151 0.590624 66.000000 7 456.743060
-1.150569 -0.563661 0.466298 50.000000 5 456.743062
-1.186643 -0.581333 0.342347 37.000000 3 456.743065
-1.225304 -0.600008 0.215193 37.000000 1 456.743067
-0.972838 -0.475335 1.045177 71.000000 14 456.743075
-1.011948 -0.494440 0.903639 73.000000 12 456.743078
-1.051447 -0.513512 0.772960 75.000000 10 456.743080
-1.089867 -0.532273 0.648156 71.000000 8 456.743083
-1.129353 -0.551313 0.526296 64.000000 6 456.743085
-1.170844 -0.571315 0.404934 44.000000 4 456.743088
-1.201654 -0.586089 0.278451 35.000000 2 456.743090
-1.243691 -0.606323 0.149489 69.000000 0 456.743093
-0.048374 -0.012997 4.189114 27.000000 31 456.743104
-0.415034 -0.189046 2.899769 53.000000 28 456.743106
-0.497354 -0.225844 2.649579 47.000000 27 456.743109
-0.618367 -0.295460 2.236773 53.000000 25 456.743111
-0.709482 -0.343764 1.916870 63.000000 23 456.743114
-0.785043 -0.380537 1.665411 54.000000 21 456.743116
-0.856484 -0.415162 1.470542 64.000000 19 456.743119
-0.904678 -0.438519 1.279886 67.000000 17 456.743122
-0.204860 -0.081748 3.643303 39.000000 30 456.743129
-0.323309 -0.138227 3.231230 40.000000 29 456.743132
-0.559904 -0.262724 2.417088 56.000000 26 456.743134
-0.666067 -0.321298 2.065232 56.000000 24 456.743137
-0.748686 -0.361466 1.782083 69.000000 22 456.743140
-0.816429 -0.394340 1.553219 62.000000 20 456.743142
-0.873589 -0.421945 1.358941 62.000000 18 456.743145
-0.922976 -0.445795 1.189469 68.000000 16 456.743147
-0.956170 -0.464919 1.124606 64.000000 15 456.743105
-1.004017 -0.488180 0.982261 69.000000 13 456.743108
-1.036184 -0.503597 0.839949 69.000000 11 456.743110
-1.081107 -0.525427 0.715501 70.000000 9 456.743113
-1.118278 -0.543251 0.590624 66.000000 7 456.743115
-1.148214 -0.557546 0.464888 52.000000 5 456.743118
-1.188665 -0.577187 0.342347 37.000000 3 456.743120
-1.227391 -0.595727 0.215193 37.000000 1 456.743123
-0.974492 -0.471936 1.045177 71.000000 14 456.743131
-1.010030 -0.489143 0.900696 73.000000 12 456.743133
-1.053233 -0.509839 0.772960 73.000000 10 456.743136
-1.087633 -0.526488 0.646058 73.000000 8 456.743138
-1.127020 -0.545311 0.524653 64.000000 6 456.743141
-1.168455 -0.565108 0.403762 44.000000 4 456.743143
-1.203692 -0.581891 0.278451 35.000000 2 456.743146
-1.245800 -0.601978 0.149489 69.000000 0 456.743149
-0.048419 -0.012828 4.189114 27.000000 31 456.743159
-0.414983 -0.187278 2.894829 53.000000 28 456.743162
-0.498140 -0.224106 2.649579 47.000000 27 456.743164
-0.618045 -0.292661 2.232002 53.000000 25 456.743167
-0.708917 -0.340440 1.912267 65.000000 23 456.743169
-0.786367 -0.377794 1.665411 54.000000 21 456.743172
-0.855391 -0.410951 1.466409 64.000000 19 456.743175
-0.906203 -0.435358 1.279886 67.000000 17 456.743177
-0.204874 -0.080928 3.638312 39.000000 30 456.743185
-0.323790 -0.137097 3.231230 40.000000 29 456.743187
-0.559677 -0.260238 2.412249 56.000000 26 456.743190
-0.667185 -0.318971 2.065232 56.000000 24 456.743193
-0.749944 -0.358850 1.782083 71.000000 22 456.743195
-0.817800 -0.391488 1.553219 62.000000 20 456.743198
-0.875057 -0.418893 1.358941 62.000000 18 456.743200
-0.924527 -0.442571 1.189469 70.000000 16 456.743203
-0.957787 -0.461578 1.124606 64.000000 15 456.743160
-1.002208 -0.482982 0.979123 69.000000 13 456.743163
-1.034168 -0.498162 0.837207 69.000000 11 456.743166
-1.078943 -0.519727 0.713183 70.000000 9 456.743168
-1.115991 -0.537333 0.588751 66.000000 7 456.743171
-1.150154 -0.553534 0.464888 50.000000 5 456.743173
-1.186246 -0.570904 0.341414 37.000000 3 456.743176
-1.224975 -0.589280 0.214747 38.000000 1 456.743178
-0.976133 -0.468531 1.045177 69.000000 14 456.743186
-1.011731 -0.485615 0.900696 73.000000 12 456.743189
-1.051119 -0.504294 0.770428 73.000000 10 456.743191
-1.089465 -0.522688 0.646058 71.000000 8 456.743194
-1.128916 -0.541373 0.524653 64.000000 6 456.743196
-1.170421 -0.561026 0.403762 44.000000 4 456.743199
-1.201250 -0.575546 0.277761 35.000000 2 456.743202
-1.243388 -0.595468 0.149288 69.000000 0 456.743204
-0.048420 -0.012651 4.184114 31.000000 31 456.743215
-0.415634 -0.185828 2.894829 43.000000 28 456.743217
-0.497989 -0.221952 2.644683 49.000000 27 456.743220
-0.619063 -0.290502 2.232002 53.000000 25 456.743222
-0.710101 -0.337963 1.912267 63.000000 23 456.743225
-0.787681 -0.375047 1.665411 54.000000 21 456.743228
-0.856820 -0.407963 1.466409 64.000000 19 456.743230
-0.907717 -0.432193 1.279886 68.000000 17 456.743233
-0.205155 -0.080212 3.638312 39.000000 30 456.743240
-0.324266 -0.135966 3.231230 39.000000 29 456.743243
-0.560582 -0.258283 2.412249 56.000000 26 456.743246
-0.666735 -0.315902 2.060539 56.000000 24 456.743248
-0.751192 -0.356230 1.782083 69.000000 22 456.743251
-0.819162 -0.388631 1.553219 62.000000 20 456.743253
-0.873791 -0.414544 1.354951 64.000000 18 456.743256
-0.926066 -0.439341 1.189469 68.000000 16 456.743258
-0.959393 -0.458232 1.124606 64.000000 15 456.743216
-1.003888 -0.479481 0.979123 69.000000 13 456.743219
-1.035901 -0.494549 0.837207 69.000000 11 456.743221
-1.080751 -0.515958 0.713183 70.000000 9 456.743224
-1.117859 -0.533434 0.588751 64.000000 7 456.743226
-1.152079 -0.549516 0.464888 50.000000 5 456.743229
-1.188231 -0.566760 0.341414 37.000000 3 456.743231
-1.227024 -0.585001 0.214747 38.000000 1 456.743234
-0.977763 -0.465121 1.045177 71.000000 14 456.743242
-1.013420 -0.482080 0.900696 75.000000 12 456.743244
-1.052873 -0.500622 0.770428 75.000000 10 456.743247
-1.091282 -0.518882 0.646058 71.000000 8 456.743249
-1.130799 -0.537430 0.524653 62.000000 6 456.743252
-1.167982 -0.554851 0.402589 42.000000 4 456.743254
-1.203252 -0.571349 0.277761 34.000000 2 456.743257
-1.245459 -0.591124 0.149288 69.000000 0 456.743260
-0.048464 -0.012482 4.184114 31.000000 31 456.743270
-0.416280 -0.184376 2.894829 43.000000 28 456.743273
-0.498760 -0.220213 2.644683 47.000000 27 456.743275
-0.618719 -0.287710 2.227230 53.000000 25 456.743278
-0.711276 -0.335482 1.912267 63.000000 23 456.743280
-0.786819 -0.371273 1.661022 54.000000 21 456.743283
-0.855694 -0.403768 1.462276 64.000000 19 456.743285
-0.909220 -0.429021 1.279886 68.000000 17 456.743288
-0.205434 -0.079495 3.638312 39.000000 30 456.743296
-0.324739 -0.134834 3.231230 39.000000 29 456.743298
-0.560336 -0.255802 2.407410 56.000000 26 456.743301
-0.667833 -0.313572 2.060539 56.000000 24 456.743303
-0.752430 -0.353606 1.782083 73.000000 22 456.743306
-0.818153 -0.384659 1.548954 64.000000 20 456.743308
-0.875232 -0.411491 1.354951 62.000000 18 456.743311
-0.924526 -0.434663 1.185794 70.000000 16 456.743314
-0.957763 -0.453355 1.121102 66.000000 15 456.743271
-1.005555 -0.475974 0.979123 67.000000 13 456.743274
-1.037621 -0.490930 0.837207 69.000000 11 456.743276
-1.078541 -0.510288 0.710865 70.000000 9 456.743279
-1.119715 -0.529529 0.588751 62.000000 7 456.743282
-1.149653 -0.543441 0.463479 49.000000 5 456.743284
-1.185761 -0.560510 0.340482 37.000000 3 456.743287
-1.224556 -0.578586 0.214300 39.000000 1 456.743289
-0.976002 -0.460113 1.041852 73.000000 14 456.743297
-1.011441 -0.476816 0.897753 73.000000 12 456.743300
-1.054614 -0.496944 0.770428 75.000000 10 456.743302
-1.088982 -0.513135 0.643960 71.000000 8 456.743305
-1.132668 -0.533479 0.524653 62.000000 6 456.743307
-1.169911 -0.550771 0.402589 42.000000 4 456.743310
-1.205239 -0.567145 0.277761 34.000000 2 456.743312
-1.242994 -0.584646 0.149086 70.000000 0 456.743315
-0.048507 -0.012313 4.184114 32.000000 31 456.743326
-0.416209 -0.182610 2.889890 53.000000 28 456.743328
-0.499526 -0.218470 2.644683 40.000000 27 456.743331
-0.619719 -0.285548 2.227230 51.000000 25 456.743333
-0.710673 -0.332170 1.907665 65.000000 23 456.743336
-0.788110 -0.368524 1.661022 52.000000 21 456.743338
-0.857098 -0.400779 1.462276 66.000000 19 456.743341
-0.910712 -0.425845 1.279886 68.000000 17 456.743343
-0.205710 -0.078778 3.638312 39.000000 30 456.743351
-0.325208 -0.133699 3.231230 40.000000 29 456.743354
-0.561225 -0.253845 2.407410 55.000000 26 456.743356
-0.668924 -0.311239 2.060539 56.000000 24 456.743359
-0.751686 -0.350058 1.777582 73.000000 22 456.743361
-0.819491 -0.381801 1.548954 64.000000 20 456.743364
-0.876664 -0.408434 1.354951 62.000000 18 456.743367
-0.926037 -0.431433 1.185794 70.000000 16 456.743369
-0.959340 -0.450009 1.121102 66.000000 15 456.743327
-1.003686 -0.470808 0.975985 69.000000 13 456.743329
-1.039328 -0.487305 0.837207 69.000000 11 456.743332
-1.080316 -0.506520 0.710865 70.000000 9 456.743334
-1.117358 -0.523650 0.586878 62.000000 7 456.743337
-1.151543 -0.539425 0.463479 49.000000 5 456.743340
-1.183262 -0.554283 0.339549 36.000000 3 456.743342
-1.226568 -0.574308 0.214300 38.000000 1 456.743345
-0.977603 -0.456703 1.041852 73.000000 14 456.743352
-1.013099 -0.473283 0.897753 71.000000 12 456.743355
-1.052436 -0.491436 0.767895 75.000000 10 456.743358
-1.090766 -0.509331 0.643960 71.000000 8 456.743360
-1.134524 -0.529522 0.524653 62.000000 6 456.743363
-1.171827 -0.546684 0.402589 40.000000 4 456.743365
-1.202723 -0.560842 0.277071 34.000000 2 456.743368
-1.245027 -0.580304 0.149086 69.000000 0 456.743370
-0.048550 -0.012144 4.184114 32.000000 31 456.743381
-0.416844 -0.181156 2.889890 53.000000 28 456.743384
-0.500286 -0.216725 2.644683 40.000000 27 456.743386
-0.619353 -0.282763 2.222459 51.000000 25 456.743389
-0.711828 -0.329688 1.907665 63.000000 23 456.743391
