# .PCD v.7 - Point Cloud Data file format
VERSION .7
FIELDS x y z normal_x normal_y normal_z
SIZE 4 4 4 4 2 4
TYPE F F F F U F
COUNT 1 1 1 1 1 1
WIDTH 933
HEIGHT 1
VIEWPOINT 0 0 0 1 0 0 0
POINTS 933
DATA ascii
0.701310 -2.163540 0.523275 18.000000 3 584.819236
0.712079 -2.198069 0.299973 13.000000 1 584.819238
0.578424 -1.790809 1.756694 19.000000 14 584.819246
0.598369 -1.852570 1.501101 24.000000 12 584.819249
0.617715 -1.913606 1.266783 21.000000 10 584.819251
0.644461 -1.996472 1.057276 23.000000 8 584.819254
0.662784 -2.054461 0.840049 23.000000 6 584.819256
0.684657 -2.123531 0.628847 22.000000 4 584.819259
0.707723 -2.196386 0.413655 15.000000 2 584.819261
0.725800 -2.253834 0.189191 9.000000 0 584.819264
0.006230 -0.054783 4.769092 18.000000 31 584.819275
0.152583 -0.520401 3.448026 11.000000 28 584.819277
0.198992 -0.681712 3.437710 9.000000 27 584.819280
0.419190 -1.338103 4.527201 13.000000 25 584.819282
0.425860 -1.333523 3.357460 7.000000 23 584.819285
0.874417 -2.736562 5.329943 4.000000 21 584.819287
0.507257 -1.587489 2.520311 9.000000 19 584.819290
0.538238 -1.684460 2.193079 11.000000 17 584.819293
0.067729 -0.281151 4.826314 18.000000 30 584.819300
0.115615 -0.431987 4.121113 9.000000 29 584.819303
0.260142 -0.851307 3.462357 7.000000 26 584.819305
0.888357 -2.798685 8.039124 4.000000 24 584.819308
0.445728 -1.402505 3.105328 7.000000 22 584.819311
0.486574 -1.530125 2.696490 7.000000 20 584.819313
0.521420 -1.639718 2.352326 11.000000 18 584.819316
0.553069 -1.739255 2.056808 14.000000 16 584.819318
0.570007 -1.776404 1.913130 16.000000 15 584.819276
0.590871 -1.841434 1.641194 20.000000 13 584.819278
0.609732 -1.901355 1.393725 18.000000 11 584.819281
0.630857 -1.967240 1.167516 22.000000 9 584.819284
0.652507 -2.035976 0.952119 24.000000 7 584.819286
0.676162 -2.111052 0.741091 18.000000 5 584.819289
0.702744 -2.194043 0.528871 18.000000 3 584.819291
0.713511 -2.228999 0.302650 13.000000 1 584.819294
0.578981 -1.814162 1.776643 18.000000 14 584.819302
0.598044 -1.873901 1.515816 23.000000 12 584.819304
0.617581 -1.936287 1.279446 20.000000 10 584.819307
0.645763 -2.024653 1.069865 23.000000 8 584.819309
0.665648 -2.088258 0.851548 23.000000 6 584.819312
0.687568 -2.158328 0.637053 21.000000 4 584.819314
0.709066 -2.227156 0.417794 15.000000 2 584.819317
0.727017 -2.284919 0.190400 9.000000 0 584.819319
0.006039 -0.054805 4.769092 17.000000 31 584.819330
0.150765 -0.520930 3.448026 12.000000 28 584.819333
0.196611 -0.682402 3.437710 8.000000 27 584.819335
0.414517 -1.339558 4.527201 13.000000 25 584.819338
0.424729 -1.346181 3.385075 9.000000 23 584.819340
0.864138 -2.737313 5.325554 4.000000 21 584.819343
0.506795 -1.605351 2.545109 8.000000 19 584.819345
0.537181 -1.701614 2.212264 10.000000 17 584.819348
0.066681 -0.281104 4.821323 18.000000 30 584.819356
0.113564 -0.430322 4.101227 9.000000 29 584.819358
0.257169 -0.852210 3.462357 11.000000 26 584.819361
0.877550 -2.798476 8.029737 4.000000 24 584.819363
0.444743 -1.416518 3.132333 7.000000 22 584.819366
0.485138 -1.544255 2.717820 7.000000 20 584.819369
0.520210 -1.655906 2.372273 10.000000 18 584.819371
0.552075 -1.757347 2.075184 13.000000 16 584.819374
0.569191 -1.795380 1.930652 15.000000 15 584.819331
0.591498 -1.865750 1.660021 18.000000 13 584.819334
0.610669 -1.927388 1.410174 18.000000 11 584.819337
0.632015 -1.994770 1.181424 21.000000 9 584.819339
0.653793 -2.064759 0.963357 24.000000 7 584.819342
0.678920 -2.145416 0.750955 18.000000 5 584.819344
0.703973 -2.224583 0.534467 17.000000 3 584.819347
0.714736 -2.259966 0.305327 12.000000 1 584.819349
0.579383 -1.837541 1.796592 18.000000 14 584.819357
0.598791 -1.899107 1.533475 22.000000 12 584.819360
0.618593 -1.963103 1.294640 19.000000 10 584.819362
0.646875 -2.052867 1.082453 22.000000 8 584.819365
0.666865 -2.117595 0.861404 23.000000 6 584.819367
0.690244 -2.193169 0.645259 21.000000 4 584.819370
0.710203 -2.257961 0.421932 14.000000 2 584.819372
0.728025 -2.316038 0.191609 8.000000 0 584.819375
0.005849 -0.054869 4.774092 17.000000 31 584.819386
0.148946 -0.521453 3.448026 12.000000 28 584.819388
0.194228 -0.683084 3.437710 8.000000 27 584.819391
0.411147 -1.345282 4.541516 12.000000 25 584.819393
0.423515 -1.358846 3.412690 13.000000 23 584.819396
0.853865 -2.738025 5.321166 5.000000 21 584.819398
0.506215 -1.623229 2.569906 8.000000 19 584.819401
0.536964 -1.721842 2.235285 10.000000 17 584.819404
0.065700 -0.281335 4.821323 17.000000 30 584.819411
0.111394 -0.428131 4.076370 9.000000 29 584.819414
0.254910 -0.855513 3.472035 13.000000 26 584.819416
0.866755 -2.798225 8.020352 4.000000 24 584.819419
0.443022 -1.428462 3.154837 7.000000 22 584.819422
0.483609 -1.558393 2.739149 7.000000 20 584.819424
0.519786 -1.674983 2.396210 10.000000 18 584.819427
0.550961 -1.775452 2.093560 13.000000 16 584.819429
0.568250 -1.814373 1.948175 15.000000 15 584.819387
0.591962 -1.890093 1.678848 18.000000 13 584.819389
0.611431 -1.953451 1.426623 18.000000 11 584.819392
0.632988 -2.022331 1.195333 21.000000 9 584.819395
0.654886 -2.093575 0.974595 23.000000 7 584.819397
0.680016 -2.175245 0.759410 18.000000 5 584.819400
0.704998 -2.255158 0.540062 17.000000 3 584.819402
0.717238 -2.295721 0.308451 12.000000 1 584.819405
0.579628 -1.860945 1.816541 17.000000 14 584.819413
0.599371 -1.924340 1.551134 21.000000 12 584.819415
0.619424 -1.989949 1.309835 18.000000 10 584.819418
0.647799 -2.081113 1.095041 21.000000 8 584.819420
0.669289 -2.151475 0.872903 22.000000 6 584.819423
0.692685 -2.228056 0.653465 20.000000 4 584.819425
0.709663 -2.284073 0.425382 14.000000 2 584.819428
0.728825 -2.347193 0.192819 9.000000 0 584.819431
0.005656 -0.054846 4.769092 17.000000 31 584.819441
0.147125 -0.521970 3.448026 14.000000 28 584.819444
0.191842 -0.683758 3.437710 8.000000 27 584.819446
0.405586 -1.343849 4.531973 12.000000 25 584.819449
0.421643 -1.369652 3.435703 12.000000 23 584.819451
0.842891 -2.736410 5.312388 5.000000 21 584.819454
0.505516 -1.641122 2.594704 8.000000 19 584.819457
0.536613 -1.742089 2.258307 9.000000 17 584.819459
0.064653 -0.281280 4.816332 18.000000 30 584.819467
0.109371 -0.426448 4.056485 9.000000 29 584.819469
0.250858 -0.852777 3.457517 14.000000 26 584.819472
0.855467 -2.796283 8.006273 6.000000 24 584.819475
0.441859 -1.442493 3.181842 7.000000 22 584.819477
0.482752 -1.575033 2.764745 7.000000 20 584.819480
0.518352 -1.691195 2.416158 10.000000 18 584.819482
0.549727 -1.793571 2.111935 12.000000 16 584.819485
0.567183 -1.833380 1.965698 14.000000 15 584.819442
0.592264 -1.914461 1.697674 18.000000 13 584.819445
0.612019 -1.979543 1.443071 17.000000 11 584.819448
0.633776 -2.049924 1.209241 21.000000 9 584.819450
0.657154 -2.126854 0.987707 22.000000 7 584.819453
0.680911 -2.205108 0.767865 17.000000 5 584.819455
0.704368 -2.281073 0.544726 16.000000 3 584.819458
0.718031 -2.326762 0.311128 11.000000 1 584.819460
0.579717 -1.884373 1.836491 17.000000 14 584.819468
0.599781 -1.949601 1.568793 21.000000 12 584.819471
0.620076 -2.016824 1.325029 18.000000 10 584.819473
0.648533 -2.109391 1.107629 20.000000 8 584.819476
0.671484 -2.185397 0.884401 21.000000 6 584.819478
0.693464 -2.258339 0.660499 19.000000 4 584.819481
0.711856 -2.319676 0.430210 13.000000 2 584.819483
0.730882 -2.383157 0.194229 9.000000 0 584.819486
0.005465 -0.054865 4.769092 15.000000 31 584.819497
0.145302 -0.522480 3.448026 14.000000 28 584.819499
0.189455 -0.684424 3.437710 8.000000 27 584.819502
0.400893 -1.345257 4.531973 11.000000 25 584.819504
0.419701 -1.380461 3.458715 10.000000 23 584.819507
0.832637 -2.737043 5.308000 5.000000 21 584.819509
0.503879 -1.656337 2.615369 7.000000 19 584.819512
0.535194 -1.759287 2.277492 9.000000 17 584.819515
0.063671 -0.281504 4.816332 17.000000 30 584.819522
0.107492 -0.425273 4.041570 9.000000 29 584.819525
0.247880 -0.853648 3.457517 9.000000 26 584.819527
0.844703 -2.795948 7.996889 6.000000 24 584.819530
0.439974 -1.454449 3.204346 6.000000 22 584.819533
0.481029 -1.589189 2.786074 6.000000 20 584.819535
0.517685 -1.710302 2.440095 9.000000 18 584.819538
0.549356 -1.814948 2.133986 12.000000 16 584.819540
0.565991 -1.852401 1.983220 14.000000 15 584.819498
0.592403 -1.938855 1.716501 17.000000 13 584.819501
0.613653 -2.009661 1.462262 17.000000 11 584.819503
0.634379 -2.077546 1.223149 20.000000 9 584.819506
0.657844 -2.155739 0.998945 21.000000 7 584.819508
0.683005 -2.239592 0.777730 17.000000 5 584.819511
0.704999 -2.311710 0.550321 15.000000 3 584.819513
0.720068 -2.362600 0.314251 10.000000 1 584.819516
0.579649 -1.907823 1.856440 16.000000 14 584.819524
0.600022 -1.974887 1.586452 20.000000 12 584.819526
0.621800 -2.047853 1.342756 18.000000 10 584.819529
0.650396 -2.142041 1.122316 20.000000 8 584.819531
0.673450 -2.219361 0.895900 20.000000 6 584.819534
0.695451 -2.293306 0.668706 18.000000 4 584.819536
0.712372 -2.350583 0.434349 13.000000 2 584.819539
0.732696 -2.419164 0.195640 9.000000 0 584.819542
0.005273 -0.054884 4.769092 13.000000 31 584.819552
0.143272 -0.522235 3.443087 13.000000 28 584.819555
0.187064 -0.685081 3.437710 8.000000 27 584.819557
0.395352 -1.343782 4.522429 10.000000 25 584.819560
0.418250 -1.393145 3.486330 7.000000 23 584.819562
0.822389 -2.737639 5.303611 6.000000 21 584.819565
0.502952 -1.674257 2.640166 7.000000 19 584.819568
0.534584 -1.779567 2.300513 9.000000 17 584.819570
0.062626 -0.281442 4.811340 17.000000 30 584.819578
0.105494 -0.423573 4.021685 9.000000 29 584.819580
0.244206 -0.852089 3.447839 9.000000 26 584.819583
0.833952 -2.795572 7.987503 6.000000 24 584.819586
0.440503 -1.474756 3.244854 7.000000 22 584.819588
0.480706 -1.608350 2.815936 7.000000 20 584.819591
0.516027 -1.726538 2.460042 9.000000 18 584.819593
0.547871 -1.833096 2.152362 11.000000 16 584.819596
0.564672 -1.871437 2.000743 13.000000 15 584.819553
0.592378 -1.963273 1.735328 17.000000 13 584.819556
0.613878 -2.035811 1.478710 17.000000 11 584.819559
0.636076 -2.109439 1.239375 19.000000 9 584.819561
0.659679 -2.189094 1.012056 20.000000 7 584.819564
0.683484 -2.269524 0.786185 16.000000 5 584.819566
0.705424 -2.342378 0.555917 14.000000 3 584.819569
0.721863 -2.398481 0.317375 11.000000 1 584.819571
0.578351 -1.927719 1.873064 16.000000 14 584.819579
0.601255 -2.004071 1.607054 20.000000 12 584.819582
0.623315 -2.078919 1.360483 18.000000 10 584.819584
0.650736 -2.170382 1.134904 20.000000 8 584.819587
0.675187 -2.253364 0.907399 19.000000 6 584.819589
0.697202 -2.328314 0.676912 17.000000 4 584.819592
0.714101 -2.386265 0.439178 13.000000 2 584.819595
0.734267 -2.455212 0.197051 9.000000 0 584.819597
0.005081 -0.054858 4.764092 16.000000 31 584.819608
0.141449 -0.522732 3.443087 11.000000 28 584.819610
0.184672 -0.685730 3.437710 9.000000 27 584.819613
0.389409 -1.340851 4.508114 6.000000 25 584.819615
0.415605 -1.402089 3.504740 4.000000 23 584.819618
0.812828 -2.740493 5.303611 6.000000 21 584.819621
0.502705 -1.694887 2.669097 7.000000 19 584.819623
0.533838 -1.799864 2.323535 8.000000 17 584.819626
0.061583 -0.281375 4.806348 19.000000 30 584.819633
0.103636 -0.422382 4.006771 8.000000 29 584.819636
0.241230 -0.852937 3.447839 11.000000 26 584.819639
0.823213 -2.795156 7.978117 6.000000 24 584.819641
0.439665 -1.490906 3.276360 7.000000 22 584.819644
0.478042 -1.620024 2.833000 6.000000 20 584.819646
0.515115 -1.745673 2.483979 9.000000 18 584.819649
0.548185 -1.857758 2.178088 11.000000 16 584.819651
0.563227 -1.890486 2.018266 13.000000 15 584.819609
0.592191 -1.987713 1.754154 16.000000 13 584.819612
0.613927 -2.061987 1.495159 17.000000 11 584.819614
0.637558 -2.141368 1.255601 18.000000 9 584.819617
0.661288 -2.222487 1.025167 18.000000 7 584.819619
0.685129 -2.304084 0.796049 16.000000 5 584.819622
0.705644 -2.373077 0.561513 14.000000 3 584.819624
0.723417 -2.434402 0.320498 11.000000 1 584.819627
0.577983 -1.951210 1.893013 15.000000 14 584.819635
0.602292 -2.033286 1.627657 19.000000 12 584.819637
0.624621 -2.110019 1.378210 17.000000 10 584.819640
0.652173 -2.203103 1.149590 18.000000 8 584.819642
0.676695 -2.287407 0.918898 18.000000 6 584.819645
0.697339 -2.358701 0.683946 17.000000 4 584.819647
0.715589 -2.421988 0.444007 12.000000 2 584.819650
0.737010 -2.496092 0.198663 9.000000 0 584.819653
0.004889 -0.054876 4.764092 16.000000 31 584.819664
0.139623 -0.523222 3.443087 11.000000 28 584.819667
0.182277 -0.686370 3.437710 9.000000 27 584.819669
0.415098 -1.418531 3.541561 3.000000 23 584.819674
0.802583 -2.741014 5.299222 6.000000 21 584.819677
0.501531 -1.712835 2.693895 7.000000 19 584.819679
0.532957 -1.820176 2.346557 8.000000 17 584.819682
0.060540 -0.281305 4.801356 19.000000 30 584.819690
0.102037 -0.422222 4.001799 8.000000 29 584.819692
0.237914 -0.852562 3.443000 10.000000 26 584.819695
0.812488 -2.794698 7.968731 6.000000 24 584.819697
0.435066 -1.494523 3.280860 7.000000 22 584.819700
0.478219 -1.641715 2.867127 6.000000 20 584.819702
0.514075 -1.764822 2.507916 8.000000 18 584.819705
0.547386 -1.879189 2.200139 10.000000 16 584.819708
0.562662 -1.912968 2.039293 12.000000 15 584.819665
0.591839 -2.012176 1.772981 14.000000 13 584.819668
0.614980 -2.092200 1.514349 16.000000 11 584.819670
0.638825 -2.173333 1.271828 18.000000 9 584.819673
0.662672 -2.255918 1.038279 18.000000 7 584.819676
0.685189 -2.334080 0.804505 15.000000 5 584.819678
0.705658 -2.403806 0.567108 13.000000 3 584.819681
0.726130 -2.475142 0.324068 11.000000 1 584.819683
0.577457 -1.974721 1.912962 14.000000 14 584.819691
0.603132 -2.062532 1.648259 18.000000 12 584.819694
0.624508 -2.137016 1.393405 17.000000 10 584.819696
0.653391 -2.235861 1.164277 18.000000 8 584.819699
0.676649 -2.316953 0.928754 17.000000 6 584.819701
0.698633 -2.393783 0.692152 16.000000 4 584.819704
0.716837 -2.457750 0.448835 11.000000 2 584.819706
0.739477 -2.537020 0.200275 9.000000 0 584.819709
0.004698 -0.054892 4.764092 17.000000 31 584.819720
0.137796 -0.523706 3.443087 13.000000 28 584.819722
0.179623 -0.686017 3.432815 7.000000 27 584.819725
0.410686 -1.421849 3.546163 3.000000 23 584.819730
0.792345 -2.741497 5.294833 6.000000 21 584.819732
0.500236 -1.730796 2.718693 6.000000 19 584.819735
0.531051 -1.837425 2.365741 7.000000 17 584.819737
0.059548 -0.281221 4.796365 18.000000 30 584.819745
0.100636 -0.422558 4.001799 8.000000 29 584.819748
0.234751 -0.852134 3.438161 10.000000 26 584.819750
0.802263 -2.794060 7.959347 7.000000 24 584.819753
0.475368 -1.653400 2.884191 7.000000 20 584.819758
0.513741 -1.786882 2.535843 8.000000 18 584.819761
0.547712 -1.903800 2.225865 10.000000 16 584.819763
0.561948 -1.935469 2.060320 12.000000 15 584.819721
0.591325 -2.036661 1.791808 14.000000 13 584.819723
0.614664 -2.118429 1.530798 16.000000 11 584.819726
0.639877 -2.205333 1.288054 17.000000 9 584.819728
0.665522 -2.293721 1.053263 18.000000 7 584.819731
0.686797 -2.368592 0.814369 15.000000 5 584.819734
0.705466 -2.434564 0.572704 13.000000 3 584.819736
0.728567 -2.515929 0.327638 10.000000 1 584.819739
0.576774 -1.998252 1.932911 14.000000 14 584.819746
0.603775 -2.091810 1.668861 18.000000 12 584.819749
0.625787 -2.168070 1.411132 16.000000 10 584.819752
0.654783 -2.268539 1.178963 17.000000 8 584.819754
0.678124 -2.350947 0.940253 17.000000 6 584.819757
0.698769 -2.424109 0.699186 15.000000 4 584.819759
0.719649 -2.498183 0.454354 11.000000 2 584.819762
0.742116 -2.577866 0.201888 9.000000 0 584.819764
0.004516 -0.054908 4.764092 17.000000 31 584.819775
0.136058 -0.524160 3.443087 13.000000 28 584.819778
0.177347 -0.686609 3.432815 7.000000 27 584.819780
0.407576 -1.428839 3.559971 3.000000 23 584.819785
0.782592 -2.741806 5.290445 7.000000 21 584.819788
0.499128 -1.748681 2.743490 6.000000 19 584.819790
0.531114 -1.860756 2.392600 7.000000 17 584.819793
0.058566 -0.281427 4.796365 18.000000 30 584.819801
0.099160 -0.422907 4.001799 9.000000 29 584.819803
0.231775 -0.852948 3.438161 10.000000 26 584.819806
0.792035 -2.795182 7.954654 7.000000 24 584.819808
0.512437 -1.806062 2.559780 7.000000 18 584.819816
0.547208 -1.928625 2.251591 9.000000 16 584.819819
0.562407 -1.961319 2.084852 11.000000 15 584.819776
0.591006 -2.061063 1.810634 15.000000 13 584.819779
0.614547 -2.144573 1.547247 15.000000 11 584.819781
0.641103 -2.237255 1.304280 17.000000 9 584.819784
0.666445 -2.327228 1.066374 18.000000 7 584.819787
0.686445 -2.398648 0.822824 14.000000 5 584.819789
0.707769 -2.474795 0.580165 12.000000 3 584.819792
0.729360 -2.551976 0.330761 10.000000 1 584.819794
0.575933 -2.021802 1.952860 13.000000 14 584.819802
0.604221 -2.121116 1.689463 17.000000 12 584.819805
0.626099 -2.199375 1.428859 16.000000 10 584.819807
0.655162 -2.301479 1.193649 17.000000 8 584.819810
0.677256 -2.380670 0.950109 16.000000 6 584.819812
0.699184 -2.459381 0.707392 15.000000 4 584.819815
0.719962 -2.534149 0.459183 10.000000 2 584.819817
0.744036 -2.618887 0.203500 9.000000 0 584.819820
0.004314 -0.054924 4.764092 17.000000 31 584.819831
0.134136 -0.524656 3.443087 13.000000 28 584.819833
0.174829 -0.687254 3.432815 9.000000 27 584.819836
0.315159 -1.144560 3.840073 3.000000 25 584.819838
0.949310 -3.374942 8.318980 4.000000 23 584.819841
0.771889 -2.742350 5.286056 9.000000 21 584.819843
0.497290 -1.766751 2.768288 6.000000 19 584.819846
0.529502 -1.881206 2.415622 7.000000 17 584.819848
0.057527 -0.281346 4.791374 18.000000 30 584.819856
0.097803 -0.423771 4.006771 8.000000 29 584.819859
0.228471 -0.852537 3.433321 10.000000 26 584.819861
0.782273 -2.797930 7.954654 8.000000 24 584.819864
1.721666 -6.149687 10.515947 20.000000 20 584.819869
0.511817 -1.828156 2.587706 7.000000 18 584.819872
0.546297 -1.950016 2.273643 9.000000 16 584.819874
0.561037 -1.983957 2.105880 11.000000 15 584.819832
0.590863 -2.089437 1.832599 14.000000 13 584.819834
0.613505 -2.170954 1.563696 15.000000 11 584.819837
0.641332 -2.269432 1.320506 16.000000 9 584.819840
0.667143 -2.360768 1.079485 17.000000 7 584.819842
0.687194 -2.433347 0.832689 14.000000 5 584.819845
0.708466 -2.510343 0.586693 12.000000 3 584.819847
0.731262 -2.592851 0.334331 10.000000 1 584.819850
0.574936 -2.045370 1.972809 13.000000 14 584.819858
0.604470 -2.150450 1.710065 17.000000 12 584.819860
0.625802 -2.226341 1.444053 15.000000 10 584.819863
0.654895 -2.329854 1.206238 16.000000 8 584.819865
0.678297 -2.414728 0.961608 15.000000 6 584.819868
0.700220 -2.494444 0.715598 14.000000 4 584.819870
0.722255 -2.574668 0.464701 9.000000 2 584.819873
0.745678 -2.659952 0.205112 9.000000 0 584.819875
0.004132 -0.054938 4.764092 16.000000 31 584.819886
0.132396 -0.525098 3.443087 13.000000 28 584.819889
0.172549 -0.687830 3.432815 8.000000 27 584.819891
0.317235 -1.167218 3.911649 4.000000 25 584.819894
0.936545 -3.372424 8.305173 7.000000 23 584.819896
0.762149 -2.742586 5.281668 10.000000 21 584.819899
0.495949 -1.784658 2.793086 6.000000 19 584.819901
0.528411 -1.901484 2.438643 7.000000 17 584.819904
0.056544 -0.281545 4.791374 18.000000 30 584.819912
0.096205 -0.423589 4.001799 8.000000 29 584.819914
0.225494 -0.853329 3.433321 9.000000 26 584.819917
0.771584 -2.797317 7.945268 8.000000 24 584.819919
0.435595 -1.578123 3.447391 7.000000 22 584.819922
1.696717 -6.143089 10.494617 20.000000 20 584.819925
0.511852 -1.853173 2.619622 7.000000 18 584.819927
0.545464 -1.974880 2.299369 9.000000 16 584.819930
0.561168 -2.009851 2.130411 10.000000 15 584.819887
0.590212 -2.113881 1.851425 14.000000 13 584.819890
0.614169 -2.201170 1.582886 14.000000 11 584.819892
0.642137 -2.301417 1.336732 15.000000 9 584.819895
0.667614 -2.394341 1.092597 16.000000 7 584.819898
0.687710 -2.468079 0.842553 13.000000 5 584.819900
0.711558 -2.555391 0.595087 11.000000 3 584.819903
0.732887 -2.633770 0.337901 10.000000 1 584.819905
0.574778 -2.072554 1.996083 12.000000 14 584.819913
0.603441 -2.175917 1.727724 16.000000 12 584.819916
0.625697 -2.257703 1.461780 15.000000 10 584.819918
0.654836 -2.362854 1.220924 16.000000 8 584.819921
0.677005 -2.444504 0.971464 15.000000 6 584.819923
0.700148 -2.529786 0.723804 13.000000 4 584.819926
0.723374 -2.615482 0.470220 10.000000 2 584.819928
0.748374 -2.705875 0.206926 9.000000 0 584.819931
0.003931 -0.054996 4.769092 17.000000 31 584.819942
0.130470 -0.525579 3.443087 13.000000 28 584.819944
0.170027 -0.688458 3.432815 8.000000 27 584.819947
0.303298 -1.132305 3.792356 4.000000 25 584.819949
0.921083 -3.364528 8.277557 11.000000 23 584.819952
0.751459 -2.743051 5.277279 9.000000 21 584.819954
0.493866 -1.802748 2.817883 6.000000 19 584.819957
0.526521 -1.921960 2.461665 6.000000 17 584.819960
0.055457 -0.281466 4.786382 18.000000 30 584.819967
0.094537 -0.423417 3.996828 9.000000 29 584.819970
0.222048 -0.852932 3.428482 9.000000 26 584.819972
0.762232 -2.803456 7.954654 7.000000 24 584.819975
0.434088 -1.594343 3.478897 7.000000 22 584.819978
1.671150 -6.133877 10.469022 19.000000 20 584.819980
0.511718 -1.878212 2.651538 7.000000 18 584.819983
0.544805 -1.999668 2.325095 8.000000 16 584.819985
0.557584 -2.025648 2.144429 10.000000 15 584.819943
0.589692 -2.142303 1.873390 13.000000 13 584.819945
0.612751 -2.227597 1.599335 13.000000 11 584.819948
0.641922 -2.333656 1.352958 15.000000 9 584.819951
0.667435 -2.428063 1.105708 16.000000 7 584.819953
0.687554 -2.502965 0.852417 13.000000 5 584.819956
0.713043 -2.595753 0.602548 11.000000 3 584.819958
0.735554 -2.679533 0.341916 9.000000 1 584.819961
0.573452 -2.096160 2.016032 12.000000 14 584.819969
0.603308 -2.205302 1.748326 16.000000 12 584.819971
0.624634 -2.284825 1.476975 14.000000 10 584.819974
0.654962 -2.395771 1.235611 15.000000 8 584.819976
0.677180 -2.478742 0.982962 14.000000 6 584.819979
0.701554 -2.569726 0.733183 13.000000 4 584.819981
0.724667 -2.656211 0.475738 9.000000 2 584.819984
0.748964 -2.747160 0.208538 9.000000 0 584.819986
0.003739 -0.055010 4.769092 17.000000 31 584.819997
0.128635 -0.526031 3.443087 13.000000 28 584.820000
0.167863 -0.690037 3.437710 8.000000 27 584.820002
0.292862 -1.108808 3.711236 5.000000 25 584.820005
0.907296 -3.360178 8.259148 10.000000 23 584.820007
0.741254 -2.743344 5.272891 9.000000 21 584.820010
0.492708 -1.823477 2.846814 6.000000 19 584.820012
0.525662 -1.945451 2.488523 6.000000 17 584.820015
0.054474 -0.281658 4.786382 19.000000 30 584.820023
0.092944 -0.423223 3.991856 9.000000 29 584.820025
0.219070 -0.853702 3.428482 9.000000 26 584.820028
0.751547 -2.802766 7.945268 6.000000 24 584.820030
0.429650 -1.600055 3.487899 6.000000 22 584.820033
0.470803 -1.752117 3.037765 7.000000 20 584.820036
0.510633 -1.900362 2.679465 7.000000 18 584.820038
0.543980 -2.024476 2.350821 8.000000 16 584.820041
0.560789 -2.065440 2.182980 9.000000 15 584.819998
0.589350 -2.170647 1.895354 13.000000 13 584.820001
0.612636 -2.257971 1.618525 13.000000 11 584.820004
0.641893 -2.365812 1.369185 15.000000 9 584.820006
0.667447 -2.461699 1.118819 15.000000 7 584.820009
0.687595 -2.537762 0.862282 12.000000 5 584.820011
0.715539 -2.640898 0.610942 10.000000 3 584.820014
0.736608 -2.720540 0.345486 9.000000 1 584.820016
0.572942 -2.123387 2.039306 11.000000 14 584.820024
0.601924 -2.230809 1.765985 15.000000 12 584.820027
0.624511 -2.316129 1.494702 14.000000 10 584.820029
0.653684 -2.424335 1.248199 14.000000 8 584.820032
0.678352 -2.517569 0.996104 13.000000 6 584.820034
0.702690 -2.609708 0.742562 12.000000 4 584.820037
0.726971 -2.701764 0.481946 9.000000 2 584.820039
0.752343 -2.798003 0.210553 8.000000 0 584.820042
0.003547 -0.055022 4.769092 17.000000 31 584.820053
0.126798 -0.526477 3.443087 13.000000 28 584.820055
0.165453 -0.690619 3.437710 7.000000 27 584.820058
0.273188 -1.049118 3.510824 6.000000 25 584.820060
0.896567 -3.367101 8.268353 10.000000 23 584.820063
0.731057 -2.743600 5.268502 9.000000 21 584.820065
0.491412 -1.844220 2.875745 6.000000 19 584.820068
0.523821 -1.965861 2.511545 6.000000 17 584.820071
0.053487 -0.281552 4.781390 19.000000 30 584.820078
0.091429 -0.423007 3.986885 9.000000 29 584.820081
0.215929 -0.853205 3.423643 8.000000 26 584.820083
0.744456 -2.813585 7.968731 5.000000 24 584.820086
0.427964 -1.616281 3.519405 6.000000 22 584.820089
0.470696 -1.776439 3.076158 7.000000 20 584.820091
0.510172 -1.925440 2.711381 6.000000 18 584.820094
0.544214 -2.052484 2.380222 8.000000 16 584.820096
0.555420 -2.074275 2.189989 9.000000 15 584.820054
0.588818 -2.199013 1.917319 12.000000 13 584.820056
0.613397 -2.292410 1.640457 13.000000 11 584.820059
0.642792 -2.402275 1.387729 14.000000 9 584.820062
0.668867 -2.499726 1.133803 14.000000 7 584.820064
0.687850 -2.572470 0.872146 11.000000 5 584.820067
0.716461 -2.681346 0.618403 10.000000 3 584.820069
0.738670 -2.766398 0.349502 8.000000 1 584.820072
0.571288 -2.147026 2.059255 11.000000 14 584.820080
0.601408 -2.260239 1.786587 14.000000 12 584.820082
0.625696 -2.351517 1.514961 13.000000 10 584.820085
0.654978 -2.461576 1.264983 14.000000 8 584.820087
0.678494 -2.551752 1.007603 13.000000 6 584.820090
0.704018 -2.649604 0.751940 12.000000 4 584.820092
0.729446 -2.747237 0.488155 8.000000 2 584.820095
0.754592 -2.843942 0.212367 8.000000 0 584.820098
0.003364 -0.055078 4.774092 16.000000 31 584.820108
0.125051 -0.526895 3.443087 15.000000 28 584.820111
0.163162 -0.691164 3.437710 7.000000 27 584.820113
0.270450 -1.052911 3.520367 9.000000 25 584.820116
0.884900 -3.368165 8.263750 11.000000 23 584.820118
0.721346 -2.743692 5.264113 9.000000 21 584.820121
0.490302 -1.864890 2.904675 6.000000 19 584.820124
0.523005 -1.989291 2.538404 6.000000 17 584.820126
0.052504 -0.281737 4.781390 19.000000 30 584.820134
0.089841 -0.422801 3.981913 9.000000 29 584.820136
0.212950 -0.853953 3.423643 8.000000 26 584.820139
0.376154 -1.441923 4.106586 6.000000 24 584.820142
0.427005 -1.634547 3.555411 7.000000 22 584.820144
0.469420 -1.795653 3.106019 7.000000 20 584.820147
0.509883 -1.950449 2.743297 6.000000 18 584.820149
0.540476 -2.067491 2.394923 7.000000 16 584.820152
0.588483 -2.227300 1.939283 11.000000 13 584.820112
0.613264 -2.322732 1.659647 12.000000 11 584.820115
0.642738 -2.434378 1.403955 14.000000 9 584.820117
0.668416 -2.533423 1.146914 14.000000 7 584.820120
0.688651 -2.611966 0.883420 9.000000 5 584.820122
0.718836 -2.726456 0.626796 10.000000 3 584.820125
0.742180 -2.816990 0.353964 8.000000 1 584.820127
0.570802 -2.174193 2.082529 10.000000 14 584.820135
0.601095 -2.289588 1.807189 14.000000 12 584.820138
0.625142 -2.382878 1.532688 13.000000 10 584.820140
0.654443 -2.494578 1.279670 14.000000 8 584.820143
0.679164 -2.590649 1.020744 12.000000 6 584.820145
0.705850 -2.694363 0.762491 11.000000 4 584.820148
0.732393 -2.797674 0.495053 7.000000 2 584.820150
0.757304 -2.894892 0.214382 8.000000 0 584.820153
0.003172 -0.055089 4.774092 17.000000 31 584.820164
0.123211 -0.527328 3.443087 15.000000 28 584.820166
0.160748 -0.691729 3.437710 8.000000 27 584.820169
0.267140 -1.055297 3.525139 3.000000 25 584.820171
0.873137 -3.371234 8.263750 12.000000 23 584.820174
0.711764 -2.746193 5.264113 10.000000 21 584.820176
0.489437 -1.888383 2.937739 6.000000 19 584.820179
0.521688 -2.012828 2.565263 6.000000 17 584.820182
0.051520 -0.281919 4.781390 18.000000 30 584.820189
0.088257 -0.422589 3.976942 9.000000 29 584.820192
0.209967 -0.854691 3.423643 8.000000 26 584.820194
0.370259 -1.439885 4.097200 4.000000 24 584.820197
0.425641 -1.652900 3.591418 7.000000 22 584.820200
1.589022 -6.166437 10.486085 16.000000 20 584.820202
0.509088 -1.975566 2.775213 6.000000 18 584.820205
0.539178 -2.092345 2.420649 7.000000 16 584.820207
1.214596 -4.662877 4.814894 2.000000 15 584.820165
0.588555 -2.259478 1.964385 11.000000 13 584.820168
0.613579 -2.357231 1.681579 11.000000 11 584.820170
0.643165 -2.470905 1.422499 13.000000 9 584.820173
0.668905 -2.571634 1.161899 13.000000 7 584.820175
0.683150 -2.628283 0.887647 9.000000 5 584.820178
0.720437 -2.771738 0.635190 8.000000 3 584.820180
0.743610 -2.862944 0.357980 7.000000 1 584.820183
0.570695 -2.205094 2.109128 10.000000 14 584.820191
0.601201 -2.322977 1.830735 13.000000 12 584.820193
0.625456 -2.418437 1.552948 12.000000 10 584.820196
0.654822 -2.531998 1.296454 13.000000 8 584.820198
0.680751 -2.634155 1.035529 11.000000 6 584.820201
0.708595 -2.743873 0.774214 10.000000 4 584.820203
0.732522 -2.838574 0.500571 7.000000 2 584.820206
0.759669 -2.945894 0.216398 8.000000 0 584.820209
0.002980 -0.055056 4.769092 17.000000 31 584.820219
0.121370 -0.527755 3.443087 14.000000 28 584.820222
0.158333 -0.692286 3.437710 8.000000 27 584.820224
0.262732 -1.053324 3.515595 3.000000 25 584.820227
0.860881 -3.372368 8.259148 13.000000 23 584.820229
0.701581 -2.746340 5.259724 8.000000 21 584.820232
0.488415 -1.911892 2.970802 6.000000 19 584.820235
0.520213 -2.036380 2.592121 6.000000 17 584.820237
0.050536 -0.282097 4.781390 18.000000 30 584.820245
0.086675 -0.422371 3.971970 9.000000 29 584.820247
0.206983 -0.855419 3.423643 9.000000 26 584.820250
0.424154 -1.671262 3.627425 7.000000 22 584.820255
1.566204 -6.166891 10.477553 15.000000 20 584.820258
0.508124 -2.000700 2.807129 7.000000 18 584.820260
1.194765 -4.653272 4.800876 2.000000 15 584.820220
0.588409 -2.291683 1.989488 10.000000 13 584.820223
0.613660 -2.391760 1.703511 11.000000 11 584.820226
0.643344 -2.507465 1.441043 12.000000 9 584.820228
0.670286 -2.614369 1.178756 12.000000 7 584.820231
0.690640 -2.695712 0.907376 9.000000 5 584.820233
0.722948 -2.821821 0.644516 8.000000 3 584.820236
0.745963 -2.913767 0.362442 7.000000 1 584.820238
0.569455 -2.232402 2.132402 9.000000 14 584.820246
0.600082 -2.352477 1.851337 13.000000 12 584.820249
0.626594 -2.458205 1.575739 11.000000 10 584.820251
0.656069 -2.573850 1.315336 12.000000 8 584.820254
0.682043 -2.677702 1.050313 11.000000 6 584.820256
0.709803 -2.788724 0.784765 10.000000 4 584.820259
0.733595 -2.884308 0.506780 7.000000 2 584.820262
0.762918 -3.001791 0.218615 8.000000 0 584.820264
0.002788 -0.055066 4.769092 17.000000 31 584.820275
0.119527 -0.528176 3.443087 14.000000 28 584.820277
0.155915 -0.692834 3.437710 8.000000 27 584.820280
0.257272 -1.046983 3.491737 5.000000 25 584.820282
0.848627 -3.373458 8.254545 13.000000 23 584.820285
0.691405 -2.746449 5.255335 8.000000 21 584.820288
0.487234 -1.935416 3.003866 7.000000 19 584.820290
0.519363 -2.063055 2.622817 6.000000 17 584.820293
0.049551 -0.282272 4.781390 19.000000 30 584.820300
0.085095 -0.422148 3.966999 8.000000 29 584.820303
0.203995 -0.856136 3.423643 9.000000 26 584.820306
0.422545 -1.689633 3.663431 7.000000 22 584.820311
1.543402 -6.167260 10.469022 17.000000 20 584.820313
0.506990 -2.025852 2.839045 7.000000 18 584.820316
1.144294 -4.572478 5.188048 5.000000 16 584.820318
1.178515 -4.657413 4.800876 2.000000 15 584.820276
0.587091 -2.320140 2.011452 10.000000 13 584.820279
0.613508 -2.426318 1.725442 11.000000 11 584.820281
0.644361 -2.548351 1.461906 12.000000 9 584.820284
0.670241 -2.652650 1.193740 12.000000 7 584.820286
0.692969 -2.744620 0.921468 9.000000 5 584.820289
0.726322 -2.876718 0.654775 8.000000 3 584.820291
0.746752 -2.959812 0.366458 7.000000 1 584.820294
0.599749 -2.385918 1.874882 12.000000 12 584.820304
0.626412 -2.493828 1.595999 11.000000 10 584.820307
0.655926 -2.611338 1.332121 12.000000 8 584.820309
0.683038 -2.721290 1.065097 10.000000 6 584.820312
0.711889 -2.838330 0.796488 9.000000 4 584.820314
0.734358 -2.930084 0.512988 7.000000 2 584.820317
0.764572 -3.052898 0.220630 8.000000 0 584.820320
0.002596 -0.055075 4.769092 16.000000 31 584.820330
0.117682 -0.528589 3.443087 15.000000 28 584.820333
0.153496 -0.693374 3.437710 8.000000 27 584.820335
0.252914 -1.044971 3.482193 7.000000 25 584.820338
0.836377 -3.374504 8.249943 13.000000 23 584.820340
0.681237 -2.746520 5.250947 12.000000 21 584.820343
0.486572 -1.961686 3.041062 7.000000 19 584.820345
0.519104 -2.092860 2.657349 6.000000 17 584.820348
0.048565 -0.282443 4.781390 19.000000 30 584.820356
0.083518 -0.421918 3.962028 8.000000 29 584.820358
0.201006 -0.856843 3.423643 8.000000 26 584.820361
0.305283 -1.240922 3.529375 3.000000 24 584.820363
0.420291 -1.705900 3.694937 7.000000 22 584.820366
1.521865 -6.172610 10.469022 16.000000 20 584.820368
0.504966 -2.048094 2.866971 7.000000 18 584.820371
0.537526 -2.180166 2.512528 6.000000 16 584.820374
1.152760 -4.623436 4.762326 3.000000 15 584.820331
0.587465 -2.356170 2.039692 9.000000 13 584.820334
0.613122 -2.460904 1.747374 10.000000 11 584.820336
0.644030 -2.584975 1.480450 11.000000 9 584.820339
0.672177 -2.699960 1.212471 11.000000 7 584.820342
0.696124 -2.798232 0.936969 8.000000 5 584.820344
0.729320 -2.931673 0.665034 8.000000 3 584.820347
0.747228 -3.005897 0.370474 6.000000 1 584.820349
1.160721 -4.686715 4.380000 2.000000 14 584.820357
0.599191 -2.419385 1.898427 11.000000 12 584.820360
0.627024 -2.533664 1.618791 10.000000 10 584.820362
0.656619 -2.653263 1.351003 11.000000 8 584.820365
0.684872 -2.769501 1.081524 10.000000 6 584.820367
0.713637 -2.887985 0.808211 9.000000 4 584.820370
0.735997 -2.980707 0.519886 6.000000 2 584.820372
0.767075 -3.108903 0.222847 8.000000 0 584.820375
0.002403 -0.055084 4.769092 15.000000 31 584.820386
0.115837 -0.528997 3.443087 16.000000 28 584.820388
0.151075 -0.693906 3.437710 8.000000 27 584.820391
0.248226 -1.041489 3.467878 8.000000 25 584.820393
0.824129 -3.375505 8.245340 17.000000 23 584.820396
0.671077 -2.746554 5.246558 11.000000 21 584.820398
0.485064 -1.985242 3.074126 7.000000 19 584.820401
0.517883 -2.119574 2.688045 6.000000 17 584.820403
0.047532 -0.282325 4.776399 19.000000 30 584.820411
0.081944 -0.421683 3.957056 8.000000 29 584.820414
0.198014 -0.857540 3.423643 8.000000 26 584.820416
0.299324 -1.235271 3.510604 3.000000 24 584.820419
0.417928 -1.722170 3.726443 6.000000 22 584.820421
1.498462 -6.170281 10.456223 15.000000 20 584.820424
0.503504 -2.073275 2.898887 7.000000 18 584.820427
1.111544 -4.577061 5.184373 6.000000 16 584.820429
1.135763 -4.623968 4.758821 3.000000 15 584.820387
0.584808 -2.380890 2.058519 9.000000 13 584.820389
0.613498 -2.499578 1.772047 10.000000 11 584.820392
0.644507 -2.625930 1.501312 10.000000 9 584.820394
0.672687 -2.742812 1.229328 10.000000 7 584.820397
0.697771 -2.847239 0.951061 8.000000 5 584.820400
0.730775 -2.981911 0.674360 7.000000 3 584.820402
0.747392 -3.052021 0.374490 6.000000 1 584.820405
1.139044 -4.668970 4.360051 2.000000 14 584.820412
0.599364 -2.456803 1.924916 11.000000 12 584.820415
0.628386 -2.577723 1.644115 10.000000 10 584.820418
0.658102 -2.699632 1.371984 10.000000 8 584.820420
0.686377 -2.817757 1.097950 9.000000 6 584.820423
0.715047 -2.937686 0.819935 8.000000 4 584.820425
0.739632 -3.041001 0.528164 6.000000 2 584.820428
0.769197 -3.164963 0.225064 7.000000 0 584.820430
0.002210 -0.055136 4.774092 14.000000 31 584.820441
0.113989 -0.529398 3.443087 15.000000 28 584.820444
0.148439 -0.693433 3.432815 8.000000 27 584.820446
0.244248 -1.040895 3.463106 9.000000 25 584.820449
0.811884 -3.376461 8.240737 18.000000 23 584.820451
0.660925 -2.746551 5.242169 11.000000 21 584.820454
0.486032 -2.019754 3.123721 7.000000 19 584.820456
0.517231 -2.149421 2.722577 6.000000 17 584.820459
0.046546 -0.282489 4.776399 18.000000 30 584.820467
0.080372 -0.421442 3.952085 8.000000 29 584.820469
0.194741 -0.856999 3.418804 8.000000 26 584.820472
0.292207 -1.224559 3.477755 3.000000 24 584.820474
0.414951 -1.736327 3.753448 6.000000 22 584.820477
1.478128 -6.180548 10.464756 11.000000 20 584.820480
0.501872 -2.098470 2.930803 7.000000 18 584.820482
1.095561 -4.580913 5.184373 7.000000 16 584.820485
1.115423 -4.610573 4.741298 4.000000 15 584.820442
0.586563 -2.424537 2.093034 8.000000 13 584.820445
0.613612 -2.538283 1.796721 9.000000 11 584.820447
0.645747 -2.671225 1.524493 10.000000 9 584.820450
0.673994 -2.790206 1.248058 10.000000 7 584.820453
0.700210 -2.900954 0.966562 8.000000 5 584.820455
0.733040 -3.036970 0.684619 7.000000 3 584.820458
0.747243 -3.098182 0.378506 6.000000 1 584.820460
1.120994 -4.665656 4.353401 2.000000 14 584.820468
0.598338 -2.490321 1.948461 10.000000 12 584.820471
0.628443 -2.617630 1.666907 9.000000 10 584.820473
0.658210 -2.741632 1.390866 10.000000 8 584.820476
0.687553 -2.866058 1.114377 9.000000 6 584.820478
0.717252 -2.992158 0.832830 8.000000 4 584.820481
0.742855 -3.101356 0.536442 7.000000 2 584.820483
0.772099 -3.225933 0.227482 8.000000 0 584.820486
0.002019 -0.055100 4.769092 17.000000 31 584.820497
0.111980 -0.529033 3.438148 13.000000 28 584.820499
0.146018 -0.693947 3.432815 8.000000 27 584.820502
0.240613 -1.041741 3.463106 8.000000 25 584.820504
0.800093 -3.379275 8.240737 16.000000 23 584.820507
0.650782 -2.746510 5.237781 11.000000 21 584.820509
0.480925 -2.029653 3.136120 6.000000 19 584.820512
0.517856 -2.185528 2.764784 7.000000 17 584.820514
0.045560 -0.282650 4.776399 20.000000 30 584.820522
0.078901 -0.421720 3.952085 8.000000 29 584.820525
0.191748 -0.857673 3.418804 8.000000 26 584.820527
0.291087 -1.239011 3.515297 3.000000 24 584.820530
0.411880 -1.750484 3.780453 6.000000 22 584.820532
0.455894 -1.936054 3.323582 7.000000 20 584.820535
0.500761 -2.126612 2.966709 7.000000 18 584.820538
1.079564 -4.584709 5.184373 6.000000 16 584.820540
1.097669 -4.607500 4.734290 4.000000 15 584.820498
0.585313 -2.456865 2.118136 8.000000 13 584.820500
0.613463 -2.577020 1.821394 9.000000 11 584.820503
0.645652 -2.712251 1.545355 9.000000 9 584.820506
0.674978 -2.837643 1.266788 9.000000 7 584.820508
0.702282 -2.954721 0.982063 7.000000 5 584.820511
0.734930 -3.092081 0.694877 7.000000 3 584.820513
0.752534 -3.168606 0.384753 6.000000 1 584.820516
1.099543 -4.647736 4.333452 3.000000 14 584.820524
0.598947 -2.531729 1.977893 9.000000 12 584.820526
0.629220 -2.661764 1.692231 9.000000 10 584.820529
0.659077 -2.788080 1.411847 9.000000 8 584.820531
0.689486 -2.918996 1.132447 9.000000 6 584.820534
0.719085 -3.046680 0.845725 8.000000 4 584.820536
0.745666 -3.161770 0.544720 7.000000 2 584.820539
0.775731 -3.291824 0.230102 8.000000 0 584.820541
0.001826 -0.055106 4.769092 17.000000 31 584.820552
0.110133 -0.529420 3.438148 13.000000 28 584.820555
0.143800 -0.695450 3.437710 8.000000 27 584.820557
0.236975 -1.042575 3.463106 8.000000 25 584.820560
0.787849 -3.380145 8.236135 15.000000 23 584.820562
0.640647 -2.746432 5.233392 12.000000 21 584.820565
0.480230 -2.058724 3.177450 7.000000 19 584.820567
0.517506 -2.218544 2.803153 7.000000 17 584.820570
0.044529 -0.282521 4.771407 19.000000 30 584.820578
0.077333 -0.421467 3.947114 8.000000 29 584.820580
0.188753 -0.858338 3.418804 8.000000 26 584.820583
0.284428 -1.229931 3.487140 4.000000 24 584.820585
0.408224 -1.762519 3.802957 6.000000 22 584.820588
0.457377 -1.973204 3.383305 7.000000 20 584.820591
0.498779 -2.151836 2.998625 7.000000 18 584.820593
1.061257 -4.578542 5.173347 6.000000 16 584.820596
1.079136 -4.600888 4.723776 4.000000 15 584.820553
1.101207 -4.694996 3.969425 2.000000 13 584.820556
0.614005 -2.619856 1.848808 8.000000 11 584.820558
0.646289 -2.757622 1.568535 9.000000 9 584.820561
0.676696 -2.889634 1.287392 9.000000 7 584.820564
0.703987 -3.008537 0.997564 7.000000 5 584.820566
0.735324 -3.142458 0.704204 6.000000 3 584.820569
0.757342 -3.239103 0.391000 6.000000 1 584.820571
1.080771 -4.640635 4.323477 3.000000 14 584.820579
0.598358 -2.569234 2.004381 9.000000 12 584.820582
0.629696 -2.705935 1.717555 8.000000 10 584.820584
0.659627 -2.834568 1.432827 9.000000 8 584.820587
0.691058 -2.971983 1.150516 8.000000 6 584.820589
0.720545 -3.101252 0.858621 7.000000 4 584.820592
0.748063 -3.222240 0.552997 6.000000 2 584.820594
0.778912 -3.357780 0.232722 7.000000 0 584.820597
0.001636 -0.055069 4.764092 17.000000 31 584.820608
0.108439 -0.530563 3.443087 15.000000 28 584.820610
0.141372 -0.695948 3.437710 7.000000 27 584.820613
0.233335 -1.043396 3.463106 8.000000 25 584.820615
0.776046 -3.382874 8.236135 18.000000 23 584.820618
0.631056 -2.748651 5.233392 13.000000 21 584.820620
0.477448 -2.079586 3.206380 7.000000 19 584.820623
1.069297 -4.657540 5.795970 3.000000 17 584.820626
0.043543 -0.282675 4.771407 19.000000 30 584.820633
0.075861 -0.421735 3.947114 8.000000 29 584.820636
0.185756 -0.858991 3.418804 8.000000 26 584.820638
0.280133 -1.230917 3.487140 7.000000 24 584.820641
0.407877 -1.789413 3.856967 7.000000 22 584.820644
0.454547 -1.992587 3.413167 7.000000 20 584.820646
0.497298 -2.180010 3.034530 7.000000 18 584.820649
1.043760 -4.575608 5.165997 6.000000 16 584.820651
1.060663 -4.594202 4.713262 4.000000 15 584.820609
1.082184 -4.687432 3.960012 2.000000 13 584.820611
0.614255 -2.662728 1.876223 8.000000 11 584.820614
0.647613 -2.807346 1.594033 8.000000 9 584.820617
0.677018 -2.937153 1.306122 8.000000 7 584.820619
0.705325 -3.062400 1.013066 7.000000 5 584.820622
0.736478 -3.197661 0.714462 6.000000 3 584.820624
0.762784 -3.314525 0.397693 7.000000 1 584.820627
1.061229 -4.629819 4.310178 3.000000 14 584.820635
0.598416 -2.610706 2.033813 9.000000 12 584.820637
0.629872 -2.750140 1.742880 8.000000 10 584.820640
0.659861 -2.881093 1.453808 8.000000 8 584.820642
0.693321 -3.029618 1.170229 8.000000 6 584.820645
0.722717 -3.160608 0.872689 7.000000 4 584.820647
0.750047 -3.282765 0.561275 7.000000 2 584.820650
0.782753 -3.428666 0.235543 7.000000 0 584.820652
0.001444 -0.055074 4.764092 17.000000 31 584.820663
0.106587 -0.530938 3.443087 16.000000 28 584.820666
0.139140 -0.697435 3.442605 7.000000 27 584.820668
0.229691 -1.044204 3.463106 8.000000 25 584.820671
0.764663 -3.387468 8.240737 13.000000 23 584.820673
0.621457 -2.750837 5.233392 13.000000 21 584.820676
1.177088 -5.210373 7.917943 4.000000 19 584.820678
1.051619 -4.654990 5.788296 3.000000 17 584.820681
0.042556 -0.282825 4.771407 19.000000 30 584.820689
0.074389 -0.421997 3.947114 8.000000 29 584.820691
0.183017 -0.860865 3.423643 8.000000 26 584.820694
0.275081 -1.228519 3.477755 12.000000 24 584.820696
0.406870 -1.814200 3.906476 7.000000 22 584.820699
1.389977 -6.192948 10.451958 14.000000 20 584.820702
0.495625 -2.208200 3.070436 7.000000 18 584.820704
1.025555 -4.569300 5.154972 7.000000 16 584.820707
1.043040 -4.590922 4.706253 5.000000 15 584.820664
1.062366 -4.675997 3.947461 2.000000 13 584.820667
0.614213 -2.705633 1.903638 7.000000 11 584.820670
0.647618 -2.852792 1.617213 8.000000 9 584.820672
0.678042 -2.989230 1.326726 8.000000 7 584.820675
0.707355 -3.120987 1.029976 7.000000 5 584.820677
0.737255 -3.252911 0.724721 6.000000 3 584.820680
0.766609 -3.385166 0.403940 6.000000 1 584.820682
1.042596 -4.622567 4.300203 4.000000 14 584.820690
0.598193 -2.652209 2.063245 8.000000 12 584.820693
0.629746 -2.794380 1.768204 8.000000 10 584.820695
0.659778 -2.927654 1.474789 8.000000 8 584.820698
0.694153 -3.082698 1.188298 7.000000 6 584.820700
0.723417 -3.215274 0.885584 7.000000 4 584.820703
0.751618 -3.343342 0.569553 7.000000 2 584.820705
0.787204 -3.504495 0.238566 8.000000 0 584.820708
0.001253 -0.055035 4.759092 18.000000 31 584.820719
0.104882 -0.532069 3.448026 16.000000 28 584.820721
0.136705 -0.697917 3.442605 8.000000 27 584.820724
0.226045 -1.044999 3.463106 8.000000 25 584.820726
0.752833 -3.390116 8.240737 11.000000 23 584.820729
0.611851 -2.752990 5.233392 15.000000 21 584.820731
1.158894 -5.214450 7.917943 4.000000 19 584.820734
1.032582 -4.646114 5.772949 3.000000 17 584.820737
0.041527 -0.282685 4.766416 19.000000 30 584.820744
0.072825 -0.421728 3.942142 8.000000 29 584.820747
0.180011 -0.861498 3.423643 9.000000 26 584.820749
0.270419 -1.227787 3.473062 14.000000 24 584.820752
0.405226 -1.836875 3.951485 6.000000 22 584.820755
1.367789 -6.195217 10.447692 17.000000 20 584.820757
0.494412 -2.239348 3.110331 7.000000 18 584.820760
1.007406 -4.562921 5.143946 8.000000 16 584.820762
1.026230 -4.591054 4.702748 5.000000 15 584.820720
1.044339 -4.672079 3.941185 2.000000 13 584.820722
0.613880 -2.748569 1.931052 7.000000 11 584.820725
0.648278 -2.902596 1.642712 8.000000 9 584.820728
0.679720 -3.045874 1.349202 8.000000 7 584.820730
0.707941 -3.174943 1.045477 6.000000 5 584.820733
0.737655 -3.308204 0.734980 6.000000 3 584.820735
0.771032 -3.460734 0.410633 7.000000 1 584.820738
1.024027 -4.615241 4.290229 4.000000 14 584.820746
0.598562 -2.697687 2.095619 7.000000 12 584.820748
0.630252 -2.842861 1.796060 7.000000 10 584.820751
0.659378 -2.974248 1.495769 8.000000 8 584.820753
0.695644 -3.140430 1.208010 7.000000 6 584.820756
0.723743 -3.269983 0.898480 6.000000 4 584.820758
0.751706 -3.399134 0.577141 7.000000 2 584.820761
0.791135 -3.580396 0.241589 7.000000 0 584.820764
0.001061 -0.055039 4.759092 17.000000 31 584.820774
0.103172 -0.533195 3.452965 17.000000 28 584.820777
0.134268 -0.698390 3.442605 8.000000 27 584.820779
0.222396 -1.045782 3.463106 8.000000 25 584.820782
0.741412 -3.394632 8.245340 20.000000 23 584.820784
0.602238 -2.755109 5.233392 14.000000 21 584.820787
1.140084 -5.215715 7.913809 3.000000 19 584.820790
1.017727 -4.655955 5.780622 4.000000 17 584.820792
0.040540 -0.282828 4.766416 20.000000 30 584.820800
0.071353 -0.421979 3.942142 8.000000 29 584.820802
0.177003 -0.862121 3.423643 8.000000 26 584.820805
0.265767 -1.227036 3.468369 6.000000 24 584.820808
0.403890 -1.861689 4.000994 6.000000 22 584.820810
1.345048 -6.194856 10.439160 15.000000 20 584.820813
0.492348 -2.267568 3.146236 7.000000 18 584.820815
0.989315 -4.556470 5.132921 9.000000 16 584.820818
1.009432 -4.591125 4.699244 5.000000 15 584.820775
1.023844 -4.656685 3.925496 3.000000 13 584.820778
0.614151 -2.795620 1.961208 6.000000 11 584.820781
0.649549 -2.956765 1.670528 7.000000 9 584.820783
0.681011 -3.102565 1.371678 7.000000 7 584.820786
0.708159 -3.228940 1.060978 6.000000 5 584.820788
0.738731 -3.368338 0.746171 7.000000 3 584.820791
0.773871 -3.531510 0.416880 7.000000 1 584.820793
1.006319 -4.611490 4.283579 5.000000 14 584.820801
0.597759 -2.739250 2.125051 7.000000 12 584.820804
0.629509 -2.887166 1.821385 7.000000 10 584.820806
0.660594 -3.029744 1.520946 7.000000 8 584.820809
0.695735 -3.193596 1.226080 6.000000 6 584.820811
0.723696 -3.324733 0.911375 6.000000 4 584.820814
0.758780 -3.488841 0.589558 7.000000 2 584.820816
0.794546 -3.656365 0.244612 7.000000 0 584.820819
0.000869 -0.055043 4.759092 18.000000 31 584.820830
0.101454 -0.534316 3.457905 17.000000 28 584.820832
0.131829 -0.698854 3.442605 8.000000 27 584.820835
0.218744 -1.046552 3.463106 8.000000 25 584.820837
0.729558 -3.397200 8.245340 9.000000 23 584.820840
0.592114 -2.754852 5.229003 14.000000 21 584.820842
1.120097 -5.211410 7.901410 3.000000 19 584.820845
0.996753 -4.637538 5.753764 4.000000 17 584.820848
0.039514 -0.282681 4.761424 20.000000 30 584.820855
0.069879 -0.422226 3.942142 8.000000 29 584.820858
0.173992 -0.862734 3.423643 8.000000 26 584.820860
0.261482 -1.227957 3.468369 6.000000 24 584.820863
0.401932 -1.884385 4.046002 6.000000 22 584.820866
1.323416 -6.199513 10.439160 13.000000 20 584.820868
0.491351 -2.301695 3.190121 7.000000 18 584.820871
0.970573 -4.546634 5.118220 10.000000 16 584.820873
0.993400 -4.594621 4.699244 6.000000 15 584.820831
1.005115 -4.648816 3.916083 3.000000 13 584.820834
0.613218 -2.838618 1.988623 6.000000 11 584.820836
0.650449 -3.010979 1.698344 7.000000 9 584.820839
0.681914 -3.159302 1.394155 6.000000 7 584.820841
0.708008 -3.282977 1.076479 6.000000 5 584.820844
0.744573 -3.452527 0.762026 7.000000 3 584.820846
0.778323 -3.612082 0.424019 7.000000 1 584.820849
0.987865 -4.604022 4.273604 4.000000 14 584.820857
0.597522 -2.784793 2.157425 7.000000 12 584.820859
0.629368 -2.935716 1.849241 7.000000 10 584.820862
0.660479 -3.080846 1.544024 7.000000 8 584.820864
0.695464 -3.246800 1.244149 6.000000 6 584.820867
0.723276 -3.379522 0.924271 6.000000 4 584.820869
0.764201 -3.573794 0.601285 7.000000 2 584.820872
0.798479 -3.737287 0.247837 7.000000 0 584.820875
0.000677 -0.055045 4.759092 19.000000 31 584.820885
0.099730 -0.535430 3.462844 19.000000 28 584.820888
0.129389 -0.699310 3.442605 8.000000 27 584.820890
0.215089 -1.047309 3.463106 8.000000 25 584.820893
0.718099 -3.401637 8.249943 7.000000 23 584.820895
0.582494 -2.756902 5.229003 14.000000 21 584.820898
0.468422 -2.217005 3.400629 7.000000 19 584.820901
