# .PCD v.7 - Point Cloud Data file format
VERSION .7
FIELDS x y z normal_x normal_y normal_z
SIZE 4 4 4 4 2 4
TYPE F F F F U F
COUNT 1 1 1 1 1 1
WIDTH 907
HEIGHT 1
VIEWPOINT 0 0 0 1 0 0 0
POINTS 907
DATA ascii
-2.082984 -1.168441 1.053263 81.000000 7 619.541519
-2.059021 -1.154527 0.783367 88.000000 5 619.541521
-2.039493 -1.143577 0.535399 93.000000 3 619.541524
-2.015536 -1.129681 0.299973 95.000000 1 619.541526
-2.180195 -1.219477 2.305294 68.000000 14 619.541534
-2.136509 -1.195039 1.866053 73.000000 12 619.541537
-2.108852 -1.179086 1.504831 80.000000 10 619.541539
-2.088623 -1.167774 1.193649 87.000000 8 619.541542
-2.069902 -1.156832 0.913970 90.000000 6 619.541544
-2.049671 -1.145056 0.656982 96.000000 4 619.541547
-2.027711 -1.132324 0.415724 95.000000 2 619.541549
-2.006449 -1.119991 0.186370 97.000000 0 619.541552
-0.051901 -0.016717 4.699095 47.000000 31 619.541563
-0.696501 -0.364873 4.998953 80.000000 28 619.541565
-0.920050 -0.480628 5.013974 70.000000 27 619.541568
-1.354233 -0.741848 4.980515 70.000000 25 619.541570
-1.808198 -1.003562 4.931523 67.000000 23 619.541573
-2.316893 -1.286408 4.921797 64.000000 21 619.541575
-2.308284 -1.281625 3.950311 48.000000 19 619.541578
-2.249560 -1.249017 3.156152 62.000000 17 619.541581
-0.257650 -0.119425 4.736466 22.000000 30 619.541588
-0.475617 -0.234947 4.896653 40.000000 29 619.541591
-1.131430 -0.609425 4.981867 72.000000 26 619.541593
-1.582111 -0.874480 4.970054 73.000000 24 619.541596
-2.055687 -1.137163 4.919164 70.000000 22 619.541599
-2.370099 -1.311620 4.500980 82.000000 20 619.541601
-2.270224 -1.256346 3.509280 56.000000 18 619.541604
-2.210872 -1.223498 2.817567 67.000000 16 619.541606
-2.197034 -1.223364 2.550957 63.000000 15 619.541564
-2.165790 -1.205964 2.080483 67.000000 13 619.541566
-2.128313 -1.184610 1.681579 76.000000 11 619.541569
-2.103206 -1.170632 1.346004 81.000000 9 619.541572
-2.082998 -1.158909 1.051390 81.000000 7 619.541574
-2.058846 -1.145001 0.781958 88.000000 5 619.541577
-2.039179 -1.134063 0.534467 93.000000 3 619.541579
-2.015114 -1.120219 0.299527 95.000000 1 619.541582
-2.181173 -1.210048 2.301969 68.000000 14 619.541590
-2.137133 -1.185613 1.863109 71.000000 12 619.541592
-2.109185 -1.169627 1.502299 80.000000 10 619.541595
-2.088718 -1.158275 1.191551 87.000000 8 619.541597
-2.069798 -1.147310 0.912327 92.000000 6 619.541600
-2.049404 -1.135539 0.655810 96.000000 4 619.541602
-2.027319 -1.122839 0.415034 96.000000 2 619.541605
-2.010347 -1.112981 0.186370 97.000000 0 619.541607
-0.051959 -0.016536 4.699095 48.000000 31 619.541618
-0.697771 -0.362439 4.998953 80.000000 28 619.541621
-0.921722 -0.477413 5.013974 70.000000 27 619.541623
-1.356814 -0.737116 4.980515 71.000000 25 619.541626
-1.811690 -0.997244 4.931523 67.000000 23 619.541628
-2.321369 -1.278312 4.921797 64.000000 21 619.541631
-2.307813 -1.270845 3.942045 50.000000 19 619.541633
-2.248289 -1.238064 3.148478 62.000000 17 619.541636
-0.258856 -0.118884 4.751441 22.000000 30 619.541644
-0.476914 -0.233519 4.901625 40.000000 29 619.541646
-1.133551 -0.605472 4.981867 73.000000 26 619.541649
-1.585154 -0.868952 4.970054 73.000000 24 619.541651
-2.059644 -1.129980 4.919164 70.000000 22 619.541654
-2.367804 -1.299574 4.488183 77.000000 20 619.541657
-2.269312 -1.245514 3.501302 56.000000 18 619.541659
-2.212157 -1.214142 2.813892 68.000000 16 619.541662
-2.198169 -1.213964 2.547452 63.000000 15 619.541619
-2.163171 -1.194633 2.074208 67.000000 13 619.541622
-2.128774 -1.175152 1.678837 74.000000 11 619.541625
-2.103401 -1.161143 1.343686 81.000000 9 619.541627
-2.082972 -1.149391 1.049517 83.000000 7 619.541630
-2.058629 -1.135490 0.780548 91.000000 5 619.541632
-2.038824 -1.124566 0.533534 92.000000 3 619.541635
-2.014650 -1.110774 0.299080 95.000000 1 619.541637
-2.182111 -1.200627 2.298644 67.000000 14 619.541645
-2.137717 -1.176198 1.860166 71.000000 12 619.541648
-2.109477 -1.160180 1.499767 79.000000 10 619.541650
-2.088772 -1.148790 1.189453 87.000000 8 619.541653
-2.069651 -1.137803 0.910684 92.000000 6 619.541655
-2.053355 -1.128378 0.655810 96.000000 4 619.541658
-2.031226 -1.115756 0.415034 95.000000 2 619.541660
-2.009840 -1.103552 0.186168 97.000000 0 619.541663
-0.051974 -0.016345 4.694095 45.000000 31 619.541674
-0.699032 -0.360001 4.998953 80.000000 28 619.541676
-0.923383 -0.474193 5.013974 69.000000 27 619.541679
-1.359379 -0.732376 4.980515 70.000000 25 619.541681
-1.815160 -0.990914 4.931523 66.000000 23 619.541684
-2.325817 -1.270201 4.921797 65.000000 21 619.541686
-2.309766 -1.261433 3.937912 50.000000 19 619.541689
-2.249784 -1.228672 3.144641 63.000000 17 619.541692
-0.260061 -0.118337 4.766416 22.000000 30 619.541699
-0.477727 -0.231853 4.901625 41.000000 29 619.541702
-1.135657 -0.601512 4.981867 74.000000 26 619.541704
-1.588178 -0.863413 4.970054 73.000000 24 619.541707
-2.063576 -1.122784 4.919164 71.000000 22 619.541710
-2.360872 -1.285067 4.466853 70.000000 20 619.541712
-2.270998 -1.236144 3.497312 57.000000 18 619.541715
-2.213404 -1.204792 2.810217 68.000000 16 619.541717
-2.199265 -1.204570 2.543948 63.000000 15 619.541675
-2.163913 -1.185205 2.071070 67.000000 13 619.541677
-2.129196 -1.165706 1.676096 76.000000 11 619.541680
-2.103556 -1.151666 1.341368 81.000000 9 619.541683
-2.082905 -1.139888 1.047644 83.000000 7 619.541685
-2.058371 -1.125995 0.779139 91.000000 5 619.541688
-2.038427 -1.115085 0.532601 92.000000 3 619.541690
-2.014146 -1.101345 0.298634 95.000000 1 619.541693
-2.183011 -1.191214 2.295320 67.000000 14 619.541701
-2.134713 -1.164856 1.854280 71.000000 12 619.541703
-2.109729 -1.150745 1.497234 80.000000 10 619.541706
-2.088784 -1.139318 1.187355 86.000000 8 619.541708
-2.069464 -1.128311 0.909042 92.000000 6 619.541711
-2.053014 -1.118877 0.654638 96.000000 4 619.541713
-2.030760 -1.106290 0.414345 96.000000 2 619.541716
-2.009293 -1.094140 0.185967 97.000000 0 619.541719
-0.052031 -0.016163 4.694095 45.000000 31 619.541729
-0.700284 -0.357559 4.998953 80.000000 28 619.541732
-0.925032 -0.470967 5.013974 70.000000 27 619.541734
-1.361927 -0.727626 4.980515 70.000000 25 619.541737
-1.818608 -0.984572 4.931523 66.000000 23 619.541739
-2.330236 -1.262075 4.921797 65.000000 21 619.541742
-2.309206 -1.250682 3.929646 49.000000 19 619.541745
-2.251240 -1.219285 3.140804 63.000000 17 619.541747
-0.261266 -0.117782 4.781390 23.000000 30 619.541755
-0.479015 -0.230415 4.906596 42.000000 29 619.541757
-1.137750 -0.597544 4.981867 74.000000 26 619.541760
-1.591182 -0.857864 4.970054 73.000000 24 619.541763
-2.067677 -1.115213 4.919164 71.000000 22 619.541765
-2.354090 -1.270213 4.445523 60.000000 20 619.541768
-2.270209 -1.224950 3.489333 57.000000 18 619.541770
-2.214822 -1.195062 2.806541 68.000000 16 619.541773
-2.200323 -1.195184 2.540443 63.000000 15 619.541730
-2.164616 -1.175786 2.067932 67.000000 13 619.541733
-2.129577 -1.156272 1.673354 76.000000 11 619.541736
-2.103669 -1.142202 1.339050 81.000000 9 619.541738
-2.082797 -1.130399 1.045771 85.000000 7 619.541741
-2.058073 -1.116515 0.777730 91.000000 5 619.541743
-2.038182 -1.105264 0.531669 92.000000 3 619.541746
-2.018169 -1.093956 0.298634 90.000000 1 619.541748
-2.180793 -1.179651 2.288670 69.000000 14 619.541756
-2.135413 -1.155101 1.851337 69.000000 12 619.541759
-2.110140 -1.140954 1.494702 80.000000 10 619.541761
-2.088954 -1.129496 1.185257 86.000000 8 619.541764
-2.073586 -1.120719 0.909042 92.000000 6 619.541766
-2.052824 -1.109035 0.653465 96.000000 4 619.541769
-2.030444 -1.096486 0.413655 96.000000 2 619.541771
-2.008704 -1.084746 0.185765 96.000000 0 619.541774
-0.052047 -0.015963 4.689095 36.000000 31 619.541785
-0.701590 -0.354990 4.998953 80.000000 28 619.541787
-0.925843 -0.467115 5.009079 70.000000 27 619.541790
-1.364585 -0.722630 4.980515 71.000000 25 619.541792
-1.822204 -0.977900 4.931523 67.000000 23 619.541795
-2.334846 -1.253526 4.921797 65.000000 21 619.541797
-2.308816 -1.239548 3.921381 50.000000 19 619.541800
-2.252869 -1.209509 3.136967 63.000000 17 619.541803
-0.262470 -0.117220 4.796365 24.000000 30 619.541810
-0.480298 -0.228970 4.911567 40.000000 29 619.541813
-1.139829 -0.593569 4.981867 74.000000 26 619.541815
-1.594167 -0.852305 4.970054 72.000000 24 619.541818
-2.071558 -1.107988 4.919164 71.000000 22 619.541821
-2.349312 -1.257066 4.428459 56.000000 20 619.541823
-2.271813 -1.215596 3.485343 57.000000 18 619.541826
-2.215784 -1.186110 2.802866 68.000000 16 619.541828
-2.201549 -1.185421 2.536939 63.000000 15 619.541786
-2.165484 -1.165999 2.064794 67.000000 13 619.541789
-2.130119 -1.146477 1.670613 76.000000 11 619.541791
-2.107841 -1.134484 1.339050 80.000000 9 619.541794
-2.082648 -1.120924 1.043898 85.000000 7 619.541796
-2.061957 -1.109324 0.777730 91.000000 5 619.541799
-2.037702 -1.095816 0.530736 92.000000 3 619.541801
-2.017589 -1.084546 0.298188 90.000000 1 619.541804
-2.181607 -1.170266 2.285345 67.000000 14 619.541812
-2.135870 -1.145729 1.848394 71.000000 12 619.541814
-2.110113 -1.131913 1.492169 80.000000 10 619.541817
-2.088689 -1.120417 1.183159 87.000000 8 619.541819
-2.073129 -1.111605 0.907399 92.000000 6 619.541822
-2.052207 -1.099925 0.652293 96.000000 4 619.541824
-2.029703 -1.087408 0.412965 95.000000 2 619.541827
-2.003670 -1.073011 0.185362 97.000000 0 619.541830
-0.052100 -0.015790 4.689095 36.000000 31 619.541840
-0.702763 -0.352661 4.998953 80.000000 28 619.541843
-0.927387 -0.464042 5.009079 69.000000 27 619.541845
-1.366974 -0.718100 4.980515 70.000000 25 619.541848
-1.825437 -0.971852 4.931523 66.000000 23 619.541850
-2.338991 -1.245776 4.921797 65.000000 21 619.541853
-2.307946 -1.229239 3.913115 50.000000 19 619.541856
-2.251209 -1.199017 3.129293 63.000000 17 619.541858
-0.262878 -0.116304 4.796365 24.000000 30 619.541866
-0.482061 -0.227747 4.921510 40.000000 29 619.541868
-1.141894 -0.589586 4.981867 74.000000 26 619.541871
-1.597132 -0.846735 4.970054 72.000000 24 619.541874
-2.075220 -1.101113 4.919164 71.000000 22 619.541876
-2.341949 -1.243155 4.407130 49.000000 20 619.541879
-2.270508 -1.205229 3.477364 57.000000 18 619.541881
-2.213921 -1.175190 2.795516 68.000000 16 619.541884
-2.199176 -1.174753 2.529930 61.000000 15 619.541841
-2.165905 -1.156977 2.061656 67.000000 13 619.541844
-2.130220 -1.137437 1.667871 76.000000 11 619.541847
-2.107684 -1.125401 1.336732 83.000000 9 619.541849
-2.082458 -1.111465 1.042025 85.000000 7 619.541852
-2.061584 -1.099862 0.776321 91.000000 5 619.541854
-2.036990 -1.086741 0.529804 92.000000 3 619.541857
-2.016780 -1.075507 0.297742 95.000000 1 619.541859
-2.178882 -1.159517 2.278695 66.000000 14 619.541867
-2.136090 -1.136741 1.845450 71.000000 12 619.541870
-2.110245 -1.122515 1.489637 80.000000 10 619.541872
-2.092587 -1.113120 1.183159 86.000000 8 619.541875
-2.072827 -1.102145 0.905756 92.000000 6 619.541877
-2.056033 -1.092755 0.652293 96.000000 4 619.541880
-2.033487 -1.080317 0.412965 96.000000 2 619.541883
-2.002990 -1.063667 0.185160 64.000000 0 619.541885
-0.052155 -0.015608 4.689095 43.000000 31 619.541896
-0.703990 -0.350206 4.998953 76.000000 28 619.541898
-0.929001 -0.460802 5.009079 69.000000 27 619.541901
-1.369472 -0.713325 4.980515 70.000000 25 619.541903
-1.828818 -0.965474 4.931523 67.000000 23 619.541906
-2.343325 -1.237604 4.921797 66.000000 21 619.541909
-2.307246 -1.218547 3.904849 50.000000 19 619.541911
-2.252545 -1.189654 3.125456 64.000000 17 619.541914
-0.263282 -0.115385 4.796365 24.000000 30 619.541921
-0.483337 -0.226289 4.926481 40.000000 29 619.541924
-1.143945 -0.585597 4.981867 74.000000 26 619.541927
-1.600078 -0.841155 4.970054 72.000000 24 619.541929
-2.077124 -1.092848 4.914663 71.000000 22 619.541932
-2.339351 -1.231328 4.394332 48.000000 20 619.541934
-2.272034 -1.195893 3.473375 59.000000 18 619.541937
-2.215010 -1.165876 2.791841 69.000000 16 619.541939
-2.200112 -1.165400 2.526425 61.000000 15 619.541897
-2.166490 -1.147587 2.058519 67.000000 13 619.541900
-2.130482 -1.128038 1.665130 76.000000 11 619.541902
-2.107684 -1.115964 1.334414 81.000000 9 619.541905
-2.086325 -1.104189 1.042025 85.000000 7 619.541907
-2.061171 -1.090416 0.774911 92.000000 5 619.541910
-2.040771 -1.079624 0.529804 93.000000 3 619.541912
-2.016119 -1.066132 0.297295 95.000000 1 619.541915
-2.179614 -1.150161 2.275371 67.000000 14 619.541923
-2.136470 -1.127392 1.842507 70.000000 12 619.541925
-2.110337 -1.113131 1.487105 80.000000 10 619.541928
-2.092445 -1.103691 1.181061 87.000000 8 619.541930
-2.072484 -1.092700 0.904114 92.000000 6 619.541933
-2.055535 -1.083305 0.651121 97.000000 4 619.541935
-2.032864 -1.070904 0.412275 96.000000 2 619.541938
-2.006691 -1.056669 0.185160 18.000000 0 619.541941
-0.052209 -0.015426 4.689095 44.000000 31 619.541951
-0.705208 -0.347747 4.998953 76.000000 28 619.541954
-0.930604 -0.457557 5.009079 68.000000 27 619.541956
-1.371953 -0.708540 4.980515 70.000000 25 619.541959
-1.832177 -0.959084 4.931523 67.000000 23 619.541961
-2.347631 -1.229417 4.921797 66.000000 21 619.541964
-2.306500 -1.207875 3.896583 49.000000 19 619.541966
-2.251004 -1.178810 3.117783 64.000000 17 619.541969
-0.263683 -0.114465 4.796365 25.000000 30 619.541977
-0.485093 -0.225048 4.936424 41.000000 29 619.541979
-1.145982 -0.581600 4.981867 74.000000 26 619.541982
-1.603004 -0.835564 4.970054 72.000000 24 619.541984
-2.080927 -1.085591 4.914663 70.000000 22 619.541987
-2.339011 -1.220741 4.385800 47.000000 20 619.541989
-2.270851 -1.185166 3.465396 57.000000 18 619.541992
-2.216061 -1.156568 2.788166 67.000000 16 619.541995
-2.201010 -1.156055 2.522921 63.000000 15 619.541952
-2.167036 -1.138208 2.055381 61.000000 13 619.541955
-2.130705 -1.118651 1.662389 78.000000 11 619.541957
-2.111567 -1.108600 1.334414 81.000000 9 619.541960
-2.086061 -1.094745 1.040152 83.000000 7 619.541963
-2.060716 -1.080986 0.773502 91.000000 5 619.541965
-2.040177 -1.070212 0.528871 93.000000 3 619.541968
-2.015418 -1.056775 0.296849 95.000000 1 619.541970
-2.180306 -1.140815 2.272046 64.000000 14 619.541978
-2.136811 -1.118053 1.839564 68.000000 12 619.541981
-2.110390 -1.103760 1.484572 82.000000 10 619.541983
-2.092263 -1.094277 1.178963 87.000000 8 619.541986
-2.072101 -1.083271 0.902471 93.000000 6 619.541988
-2.054996 -1.073872 0.649948 96.000000 4 619.541991
-2.032200 -1.061508 0.411585 96.000000 2 619.541993
-2.005939 -1.047346 0.184959 14.000000 0 619.541996
-0.052263 -0.015243 4.689095 40.000000 31 619.542007
-0.706418 -0.345283 4.998953 79.000000 28 619.542009
-0.932195 -0.454306 5.009079 63.000000 27 619.542012
-1.374418 -0.703747 4.980515 70.000000 25 619.542014
-1.833780 -0.951783 4.926921 67.000000 23 619.542017
-2.351908 -1.221215 4.921797 66.000000 21 619.542019
-2.308205 -1.198519 3.892450 49.000000 19 619.542022
-2.252260 -1.169468 3.113946 64.000000 17 619.542024
-0.264348 -0.113658 4.801356 25.000000 30 619.542032
-0.486361 -0.223576 4.941396 42.000000 29 619.542035
-1.146881 -0.577031 4.977028 70.000000 26 619.542037
-1.605911 -0.829964 4.970054 72.000000 24 619.542040
-2.084703 -1.078321 4.914663 70.000000 22 619.542042
-2.338625 -1.210172 4.377268 47.000000 20 619.542045
-2.272297 -1.175846 3.461406 59.000000 18 619.542048
-2.217073 -1.147267 2.784490 67.000000 16 619.542050
-2.201869 -1.146717 2.519416 63.000000 15 619.542008
-2.167543 -1.128838 2.052243 59.000000 13 619.542010
-2.130888 -1.109276 1.659647 78.000000 11 619.542013
-2.111494 -1.099177 1.332096 81.000000 9 619.542015
-2.085757 -1.085317 1.038279 85.000000 7 619.542018
-2.060221 -1.071572 0.772093 92.000000 5 619.542021
-2.039543 -1.060817 0.527938 93.000000 3 619.542023
-2.014676 -1.047436 0.296403 95.000000 1 619.542026
-2.177645 -1.129758 2.265396 64.000000 14 619.542033
-2.137112 -1.108726 1.836621 70.000000 12 619.542036
-2.110402 -1.094402 1.482040 82.000000 10 619.542039
-2.092041 -1.084877 1.176865 86.000000 8 619.542041
-2.071676 -1.073858 0.900828 93.000000 6 619.542044
-2.054417 -1.064456 0.648776 97.000000 4 619.542046
-2.031496 -1.052131 0.410895 96.000000 2 619.542049
-2.009583 -1.040337 0.184959 11.000000 0 619.542051
-0.052273 -0.015052 4.684095 40.000000 31 619.542062
-0.707618 -0.342815 4.998953 81.000000 28 619.542065
-0.933776 -0.451049 5.009079 63.000000 27 619.542067
-1.376866 -0.698945 4.980515 71.000000 25 619.542070
-1.837091 -0.945376 4.926921 67.000000 23 619.542072
-2.356156 -1.212997 4.921797 66.000000 21 619.542075
-2.307370 -1.187879 3.884184 50.000000 19 619.542077
-2.250628 -1.158664 3.106272 64.000000 17 619.542080
-0.264743 -0.112734 4.801356 26.000000 30 619.542088
-0.488111 -0.222318 4.951338 41.000000 29 619.542090
-1.148889 -0.573024 4.977028 70.000000 26 619.542093
-1.608799 -0.824353 4.970054 72.000000 24 619.542095
-2.088454 -1.071037 4.914663 71.000000 22 619.542098
-2.338194 -1.199620 4.368736 47.000000 20 619.542101
-2.271024 -1.165156 3.453428 59.000000 18 619.542103
-2.218049 -1.137974 2.780815 67.000000 16 619.542106
-2.202689 -1.137388 2.515911 63.000000 15 619.542063
-2.168012 -1.119479 2.049105 67.000000 13 619.542066
-2.131031 -1.099913 1.656906 76.000000 11 619.542068
-2.111381 -1.089768 1.329778 81.000000 9 619.542071
-2.085413 -1.075904 1.036406 83.000000 7 619.542074
-2.063949 -1.064374 0.772093 92.000000 5 619.542076
-2.038867 -1.051440 0.527006 93.000000 3 619.542079
-2.018320 -1.040398 0.296403 95.000000 1 619.542081
-2.178255 -1.120441 2.262071 66.000000 14 619.542089
-2.137375 -1.099411 1.833678 72.000000 12 619.542092
-2.110375 -1.085057 1.479507 80.000000 10 619.542094
-2.095815 -1.077568 1.176865 87.000000 8 619.542097
-2.075413 -1.066620 0.900828 92.000000 6 619.542099
-2.053796 -1.055058 0.647604 96.000000 4 619.542102
-2.030751 -1.042771 0.410206 96.000000 2 619.542104
-2.013202 -1.033316 0.184959 11.000000 0 619.542107
-0.052325 -0.014869 4.684095 37.000000 31 619.542118
-0.708811 -0.340343 4.998953 81.000000 28 619.542120
-0.935344 -0.447787 5.009079 69.000000 27 619.542123
-1.379298 -0.694134 4.980515 70.000000 25 619.542125
-1.840380 -0.938957 4.926921 68.000000 23 619.542128
-2.358242 -1.203676 4.917408 67.000000 21 619.542130
-2.308996 -1.178538 3.880051 51.000000 19 619.542133
-2.251803 -1.149343 3.102435 64.000000 17 619.542135
-0.265402 -0.111921 4.806348 26.000000 30 619.542143
-0.489371 -0.220832 4.956310 41.000000 29 619.542146
-1.150882 -0.569011 4.977028 73.000000 26 619.542148
-1.611666 -0.818732 4.970054 71.000000 24 619.542151
-2.092180 -1.063741 4.914663 71.000000 22 619.542153
-2.337718 -1.189086 4.360204 48.000000 20 619.542156
-2.272391 -1.155855 3.449438 57.000000 18 619.542159
-2.215964 -1.127151 2.773465 68.000000 16 619.542161
-2.203471 -1.128067 2.512407 63.000000 15 619.542119
-2.168441 -1.110131 2.045968 67.000000 13 619.542121
-2.131135 -1.090563 1.654164 76.000000 11 619.542124
-2.107285 -1.078355 1.325142 81.000000 9 619.542127
-2.085029 -1.066507 1.034533 85.000000 7 619.542129
-2.063380 -1.054979 0.770684 91.000000 5 619.542132
-2.038151 -1.042080 0.526073 93.000000 3 619.542134
-2.017505 -1.031080 0.295957 95.000000 1 619.542137
-2.178826 -1.111134 2.258746 64.000000 14 619.542145
-2.137599 -1.090107 1.830735 72.000000 12 619.542147
-2.110309 -1.075726 1.476975 82.000000 10 619.542150
-2.095520 -1.068185 1.174767 87.000000 8 619.542152
-2.074915 -1.057225 0.899186 93.000000 6 619.542155
-2.057467 -1.047882 0.647604 97.000000 4 619.542157
-2.034378 -1.035676 0.410206 96.000000 2 619.542160
-2.016797 -1.026282 0.184959 11.000000 0 619.542162
-0.052334 -0.014678 4.679096 37.000000 31 619.542173
-0.709994 -0.337867 4.998953 79.000000 28 619.542176
-0.936902 -0.444519 5.009079 70.000000 27 619.542178
-1.381712 -0.689315 4.980515 69.000000 25 619.542181
-1.843646 -0.932528 4.926921 68.000000 23 619.542183
-2.362429 -1.195437 4.917408 67.000000 21 619.542186
-2.308074 -1.167930 3.871785 51.000000 19 619.542188
-2.250080 -1.138581 3.094761 63.000000 17 619.542191
-0.266059 -0.111104 4.811340 27.000000 30 619.542199
-0.491114 -0.219557 4.966253 40.000000 29 619.542201
-1.152861 -0.564990 4.977028 73.000000 26 619.542204
-1.614514 -0.813102 4.970054 71.000000 24 619.542206
-2.095881 -1.056431 4.914663 71.000000 22 619.542209
-2.339526 -1.179745 4.355938 48.000000 20 619.542212
-2.271029 -1.145202 3.441459 57.000000 18 619.542214
-2.216858 -1.117882 2.769790 68.000000 16 619.542217
-2.204216 -1.118755 2.508902 64.000000 15 619.542174
-2.165360 -1.099031 2.039692 65.000000 13 619.542177
-2.131200 -1.081225 1.651423 77.000000 11 619.542179
-2.107085 -1.068988 1.322824 78.000000 9 619.542182
-2.088739 -1.059222 1.034533 85.000000 7 619.542185
-2.062771 -1.045601 0.769275 92.000000 5 619.542187
-2.037395 -1.032738 0.525141 93.000000 3 619.542190
-2.016649 -1.021780 0.295511 95.000000 1 619.542192
-2.179359 -1.101837 2.255421 66.000000 14 619.542200
-2.137784 -1.080815 1.827791 72.000000 12 619.542203
-2.114051 -1.068353 1.476975 84.000000 10 619.542205
-2.095186 -1.058817 1.172669 87.000000 8 619.542208
-2.074378 -1.047847 0.897543 93.000000 6 619.542210
-2.056773 -1.038503 0.646432 97.000000 4 619.542213
-2.033560 -1.026337 0.409516 96.000000 2 619.542215
-2.020367 -1.019236 0.184959 9.000000 0 619.542218
-0.052385 -0.014495 4.679096 37.000000 31 619.542229
-0.711170 -0.335386 4.998953 79.000000 28 619.542231
-0.938448 -0.441246 5.009079 70.000000 27 619.542234
-1.382771 -0.683826 4.975743 70.000000 25 619.542236
-1.846890 -0.926086 4.926921 58.000000 23 619.542239
-2.366588 -1.187183 4.917408 69.000000 21 619.542241
-2.309622 -1.158604 3.867652 51.000000 19 619.542244
-2.251175 -1.129282 3.090924 64.000000 17 619.542247
-0.266694 -0.110331 4.816332 28.000000 30 619.542254
-0.492328 -0.218143 4.971224 41.000000 29 619.542257
-1.154728 -0.561164 4.977028 74.000000 26 619.542259
-1.615658 -0.806972 4.965362 73.000000 24 619.542262
-2.099556 -1.049109 4.914663 68.000000 22 619.542265
-2.338964 -1.169239 4.347406 48.000000 20 619.542267
-2.269622 -1.134572 3.433480 56.000000 18 619.542270
-2.217520 -1.109008 2.766115 69.000000 16 619.542272
-2.204922 -1.109451 2.505398 64.000000 15 619.542230
-2.165706 -1.089716 2.036554 65.000000 13 619.542232
-2.134961 -1.073779 1.651423 77.000000 11 619.542235
-2.106846 -1.059636 1.320506 78.000000 9 619.542238
-2.088099 -1.050207 1.032659 85.000000 7 619.542240
-2.061941 -1.036600 0.767865 92.000000 5 619.542243
-2.040987 -1.025620 0.525141 92.000000 3 619.542245
-2.020204 -1.014735 0.295511 95.000000 1 619.542248
-2.179853 -1.092550 2.252097 66.000000 14 619.542256
-2.137930 -1.071535 1.824848 72.000000 12 619.542258
-2.113728 -1.059405 1.474442 82.000000 10 619.542261
-2.094628 -1.049829 1.170571 87.000000 8 619.542263
-2.073619 -1.038847 0.895900 93.000000 6 619.542266
-2.055859 -1.029500 0.645259 96.000000 4 619.542268
-2.036952 -1.019588 0.409516 96.000000 2 619.542271
-2.023736 -1.012531 0.184959 9.000000 0 619.542273
-0.052390 -0.014313 4.674096 37.000000 31 619.542284
-0.711574 -0.332697 4.994014 80.000000 28 619.542287
-0.939906 -0.438131 5.009079 68.000000 27 619.542289
-1.385031 -0.679237 4.975743 70.000000 25 619.542292
-1.849951 -0.919957 4.926921 58.000000 23 619.542294
-2.370512 -1.179329 4.917408 69.000000 21 619.542297
-2.308412 -1.148432 3.859386 51.000000 19 619.542299
-2.252037 -1.120383 3.087087 65.000000 17 619.542302
-0.267346 -0.109508 4.821323 28.000000 30 619.542310
-0.494065 -0.216851 4.981167 40.000000 29 619.542312
-1.156680 -0.557130 4.977028 73.000000 26 619.542315
-1.618465 -0.801327 4.965362 73.000000 24 619.542317
-2.103023 -1.042140 4.914663 69.000000 22 619.542320
-2.338156 -1.159159 4.338875 47.000000 20 619.542323
-2.270671 -1.125701 3.429491 56.000000 18 619.542325
-2.215303 -1.098249 2.758764 66.000000 16 619.542328
-2.205398 -1.100541 2.501893 66.000000 15 619.542285
-2.165824 -1.080790 2.033417 65.000000 13 619.542288
-2.134768 -1.064827 1.648681 79.000000 11 619.542291
-2.106384 -1.050666 1.318188 81.000000 9 619.542293
-2.087603 -1.040843 1.030787 85.000000 7 619.542296
-2.061253 -1.027257 0.766456 92.000000 5 619.542298
-2.039981 -1.016655 0.524208 92.000000 3 619.542301
-2.019100 -1.005809 0.295064 95.000000 1 619.542303
-2.180120 -1.083653 2.248772 66.000000 14 619.542311
-2.137852 -1.062640 1.821905 72.000000 12 619.542314
-2.113553 -1.050102 1.471910 82.000000 10 619.542316
-2.098280 -1.042511 1.170571 87.000000 8 619.542319
-2.073003 -1.029501 0.894258 93.000000 6 619.542321
-2.055087 -1.020157 0.644087 96.000000 4 619.542324
-2.036063 -1.010270 0.408826 96.000000 2 619.542326
-2.022782 -1.003240 0.184757 85.000000 0 619.542329
-0.052439 -0.014130 4.674096 35.000000 31 619.542340
-0.712731 -0.330211 4.994014 80.000000 28 619.542342
-0.941429 -0.434848 5.009079 69.000000 27 619.542345
-1.387394 -0.674398 4.975743 70.000000 25 619.542347
-1.853151 -0.913494 4.926921 68.000000 23 619.542350
-2.372465 -1.169988 4.913020 67.000000 21 619.542352
-2.309883 -1.139123 3.855253 51.000000 19 619.542355
-2.253059 -1.111097 3.083250 64.000000 17 619.542358
-0.267726 -0.108574 4.821323 28.000000 30 619.542365
-0.495309 -0.215337 4.986139 40.000000 29 619.542368
-1.158618 -0.553089 4.977028 74.000000 26 619.542370
-1.621252 -0.795673 4.965362 73.000000 24 619.542373
-2.106648 -1.034793 4.914663 71.000000 22 619.542376
-2.339847 -1.149840 4.334609 46.000000 20 619.542378
-2.269177 -1.115109 3.421512 55.000000 18 619.542381
-2.216081 -1.089015 2.755089 66.000000 16 619.542383
-2.206029 -1.091255 2.498389 66.000000 15 619.542341
-2.166095 -1.071497 2.030279 67.000000 13 619.542343
-2.134724 -1.055516 1.645940 78.000000 11 619.542346
-2.110039 -1.043307 1.318188 81.000000 9 619.542349
-2.091223 -1.033550 1.030787 86.000000 7 619.542351
-2.064826 -1.020055 0.766456 92.000000 5 619.542354
-2.043517 -1.009528 0.524208 92.000000 3 619.542356
-2.022599 -0.998755 0.295064 95.000000 1 619.542359
-2.177190 -1.072735 2.242122 66.000000 14 619.542367
-2.137923 -1.053385 1.818962 71.000000 12 619.542369
-2.117205 -1.042718 1.471910 82.000000 10 619.542372
-2.097835 -1.033175 1.168473 87.000000 8 619.542374
-2.072347 -1.020173 0.892615 92.000000 6 619.542377
-2.054274 -1.010831 0.642915 97.000000 4 619.542379
-2.039577 -1.003157 0.408826 96.000000 2 619.542382
-2.017304 -0.991765 0.184354 98.000000 0 619.542385
-0.052488 -0.013947 4.674096 35.000000 31 619.542395
-0.713173 -0.327398 4.989075 80.000000 28 619.542398
-0.942941 -0.431559 5.009079 70.000000 27 619.542400
-1.389740 -0.669551 4.975743 70.000000 25 619.542403
-1.856328 -0.907019 4.926921 68.000000 23 619.542405
-2.376535 -1.161699 4.913020 67.000000 21 619.542408
-2.308789 -1.128581 3.846987 51.000000 19 619.542411
-2.251163 -1.100410 3.075576 64.000000 17 619.542413
-0.268373 -0.107746 4.826314 29.000000 30 619.542421
-0.496548 -0.213817 4.991110 41.000000 29 619.542423
-1.159404 -0.548503 4.972189 73.000000 26 619.542426
-1.624020 -0.790009 4.965362 72.000000 24 619.542429
-2.110247 -1.027433 4.914663 71.000000 22 619.542431
-2.339157 -1.139382 4.326077 47.000000 20 619.542434
-2.267636 -1.104542 3.413532 56.000000 18 619.542436
-2.216821 -1.079788 2.751414 68.000000 16 619.542439
-2.206623 -1.081977 2.494884 66.000000 15 619.542396
-2.166326 -1.062216 2.027141 66.000000 13 619.542399
-2.134641 -1.046217 1.643198 78.000000 11 619.542402
-2.109689 -1.033986 1.315870 81.000000 9 619.542404
-2.090655 -1.024204 1.028913 86.000000 7 619.542407
-2.064066 -1.010732 0.765047 86.000000 5 619.542409
-2.042617 -1.000229 0.523275 93.000000 3 619.542412
-2.021600 -0.989500 0.294618 95.000000 1 619.542414
-2.177566 -1.063490 2.238797 66.000000 14 619.542422
-2.137955 -1.044142 1.816019 73.000000 12 619.542425
-2.116957 -1.033430 1.469378 80.000000 10 619.542427
-2.097350 -1.023855 1.166375 89.000000 8 619.542430
-2.075895 -1.012933 0.892615 92.000000 6 619.542432
-2.053421 -1.001523 0.641742 97.000000 4 619.542435
-2.038615 -0.993861 0.408136 96.000000 2 619.542437
-2.016263 -0.982529 0.184153 98.000000 0 619.542440
-0.052537 -0.013763 4.674096 34.000000 31 619.542451
-0.714311 -0.324906 4.989075 80.000000 28 619.542453
-0.944442 -0.428265 5.009079 70.000000 27 619.542456
-1.392068 -0.664696 4.975743 70.000000 25 619.542458
-1.859483 -0.900534 4.926921 68.000000 23 619.542461
-2.378419 -1.152352 4.908631 74.000000 21 619.542463
-2.310182 -1.119288 3.842854 51.000000 19 619.542466
-2.252106 -1.091148 3.071739 65.000000 17 619.542469
-0.269286 -0.107020 4.836298 30.000000 30 619.542476
-0.497783 -0.212291 4.996081 40.000000 29 619.542479
-1.161312 -0.544453 4.972189 73.000000 26 619.542481
-1.626768 -0.784335 4.965362 72.000000 24 619.542484
-2.112037 -1.018746 4.910162 71.000000 22 619.542487
-2.338620 -1.128533 4.317545 47.000000 20 619.542489
-2.268955 -1.094913 3.409543 54.000000 18 619.542492
-2.214657 -1.068709 2.744064 66.000000 16 619.542494
-2.207179 -1.072709 2.491379 66.000000 15 619.542452
-2.166520 -1.052946 2.024003 66.000000 13 619.542455
-2.134519 -1.036933 1.640457 78.000000 11 619.542457
-2.109301 -1.024679 1.313552 81.000000 9 619.542460
-2.094218 -1.016900 1.028913 86.000000 7 619.542462
-2.063266 -1.001426 0.763638 85.000000 5 619.542465
-2.041849 -0.990591 0.522343 92.000000 3 619.542467
-2.025213 -0.982083 0.294618 95.000000 1 619.542470
-2.178087 -1.053875 2.235472 66.000000 14 619.542478
-2.138129 -1.034539 1.813076 73.000000 12 619.542480
-2.116850 -1.023787 1.466845 80.000000 10 619.542483
-2.097003 -1.014185 1.164277 89.000000 8 619.542485
-2.075342 -1.003263 0.890972 92.000000 6 619.542488
-2.052702 -0.991876 0.640570 97.000000 4 619.542490
-2.042243 -0.986383 0.408136 96.000000 2 619.542493
-2.015182 -0.973312 0.183951 98.000000 0 619.542496
-0.052587 -0.013571 4.674096 34.000000 31 619.542506
-0.714789 -0.321967 4.984136 79.000000 28 619.542509
-0.945076 -0.424384 5.004183 67.000000 27 619.542511
-1.394495 -0.659589 4.975743 71.000000 25 619.542514
-1.862771 -0.893713 4.926921 68.000000 23 619.542516
-2.382627 -1.143627 4.908631 75.000000 21 619.542519
-2.309195 -1.108378 3.834589 50.000000 19 619.542522
-2.250309 -1.080111 3.064065 62.000000 17 619.542524
-0.269947 -0.106137 4.841290 32.000000 30 619.542532
-0.498557 -0.210466 4.996081 40.000000 29 619.542534
-1.163300 -0.540193 4.972189 73.000000 26 619.542537
-1.629632 -0.778368 4.965362 73.000000 24 619.542540
-2.115581 -1.011367 4.910162 70.000000 22 619.542542
-2.337839 -1.118113 4.309013 47.000000 20 619.542545
-2.267325 -1.084386 3.401564 54.000000 18 619.542547
-2.215316 -1.059509 2.740388 66.000000 16 619.542550
-2.207883 -1.063065 2.487875 65.000000 15 619.542507
-2.166857 -1.043309 2.020865 66.000000 13 619.542510
-2.134537 -1.027289 1.637715 77.000000 11 619.542513
-2.109051 -1.015020 1.311234 78.000000 9 619.542515
-2.093753 -1.007208 1.027040 86.000000 7 619.542518
-2.062599 -0.991778 0.762229 92.000000 5 619.542520
-2.045295 -0.983458 0.522343 93.000000 3 619.542523
-2.024140 -0.972851 0.294172 95.000000 1 619.542525
-2.178386 -1.044651 2.232147 66.000000 14 619.542533
-2.138082 -1.025321 1.810133 73.000000 12 619.542536
-2.116523 -1.014528 1.464313 79.000000 10 619.542538
-2.100530 -1.006859 1.164277 89.000000 8 619.542541
-2.074573 -0.993972 0.889329 92.000000 6 619.542543
-2.051768 -0.982605 0.639398 97.000000 4 619.542546
-2.041208 -0.977110 0.407446 96.000000 2 619.542549
-2.018735 -0.965920 0.183951 98.000000 0 619.542551
-0.052634 -0.013387 4.674096 31.000000 31 619.542562
-0.715199 -0.319154 4.979196 79.000000 28 619.542564
-0.946552 -0.421082 5.004183 68.000000 27 619.542567
-1.396789 -0.654717 4.975743 71.000000 25 619.542569
-1.865879 -0.887205 4.926921 68.000000 23 619.542572
-2.384441 -1.134274 4.904243 75.000000 21 619.542575
-2.310509 -1.099102 3.830456 50.000000 19 619.542577
-2.251171 -1.070873 3.060229 61.000000 17 619.542580
-0.270856 -0.105402 4.851273 33.000000 30 619.542587
-0.499782 -0.208929 5.001053 40.000000 29 619.542590
-1.165178 -0.536129 4.972189 73.000000 26 619.542593
-1.632339 -0.772674 4.965362 73.000000 24 619.542595
-2.119098 -1.003976 4.910162 70.000000 22 619.542598
-2.337014 -1.107711 4.300481 47.000000 20 619.542600
-2.268373 -1.075174 3.397574 52.000000 18 619.542603
-2.215937 -1.050318 2.736713 65.000000 16 619.542605
-2.205143 -1.052280 2.480866 65.000000 15 619.542563
-2.166972 -1.034063 2.017728 66.000000 13 619.542566
-2.134336 -1.018032 1.634974 77.000000 11 619.542568
-2.108582 -1.005745 1.308916 78.000000 9 619.542571
-2.093072 -0.997898 1.025167 86.000000 7 619.542573
-2.061718 -0.982508 0.760820 90.000000 5 619.542576
-2.044281 -0.974199 0.521410 93.000000 3 619.542578
-2.027524 -0.965779 0.294172 95.000000 1 619.542581
-2.178646 -1.035438 2.228823 67.000000 14 619.542589
-2.137998 -1.016116 1.807189 72.000000 12 619.542591
-2.116158 -1.005284 1.461780 80.000000 10 619.542594
-2.099932 -0.997573 1.162179 89.000000 8 619.542596
-2.073764 -0.984698 0.887687 92.000000 6 619.542599
-2.055185 -0.975437 0.639398 97.000000 4 619.542601
-2.040132 -0.967856 0.406757 96.000000 2 619.542604
-2.017581 -0.956726 0.183750 98.000000 0 619.542607
-0.052680 -0.013203 4.674096 31.000000 31 619.542618
-0.714887 -0.316028 4.969318 76.000000 28 619.542621
-0.948016 -0.417776 5.004183 69.000000 27 619.542623
-1.399066 -0.649838 4.975743 71.000000 25 619.542626
-1.868965 -0.880686 4.926921 68.000000 23 619.542628
-2.386219 -1.124922 4.899854 75.000000 21 619.542631
-2.309241 -1.088630 3.822190 51.000000 19 619.542633
-2.251995 -1.061641 3.056391 62.000000 17 619.542636
-0.271745 -0.104710 4.861256 35.000000 30 619.542644
-0.500966 -0.207474 5.006024 39.000000 29 619.542646
-1.166950 -0.532262 4.972189 73.000000 26 619.542649
-1.634892 -0.767257 4.965362 72.000000 24 619.542651
-2.122590 -0.996573 4.910162 71.000000 22 619.542654
-2.338506 -1.098438 4.296215 46.000000 20 619.542656
-2.266656 -1.064687 3.389596 53.000000 18 619.542659
-2.216339 -1.041522 2.733038 65.000000 16 619.542662
-2.205579 -1.043052 2.477361 67.000000 15 619.542619
-2.167049 -1.024828 2.014590 65.000000 13 619.542622
-2.134096 -1.008788 1.632232 77.000000 11 619.542624
-2.108075 -0.996485 1.306598 80.000000 9 619.542627
-2.092178 -0.988971 1.023294 86.000000 7 619.542630
-2.060627 -0.973617 0.759410 90.000000 5 619.542632
-2.047669 -0.967057 0.521410 93.000000 3 619.542635
-2.026379 -0.956570 0.293726 92.000000 1 619.542637
-2.178869 -1.026235 2.225498 67.000000 14 619.542645
-2.141532 -1.008647 1.807189 74.000000 12 619.542648
-2.115579 -0.996424 1.459248 80.000000 10 619.542650
-2.099123 -0.988670 1.160081 89.000000 8 619.542653
-2.077018 -0.977816 0.887687 92.000000 6 619.542655
-2.054011 -0.966547 0.638225 97.000000 4 619.542658
-2.038849 -0.958978 0.406067 96.000000 2 619.542660
-2.020742 -0.950031 0.183750 98.000000 0 619.542663
-0.052724 -0.013029 4.674096 25.000000 31 619.542674
-0.715219 -0.313344 4.964378 75.000000 28 619.542676
-0.949396 -0.414630 5.004183 69.000000 27 619.542679
-1.401213 -0.645195 4.975743 70.000000 25 619.542681
-1.870105 -0.873657 4.922318 68.000000 23 619.542684
-2.387766 -1.115988 4.895465 73.000000 21 619.542686
-2.310289 -1.079775 3.818057 54.000000 19 619.542689
-2.252599 -1.052810 3.052555 63.000000 17 619.542691
-0.272651 -0.103965 4.871239 35.000000 30 619.542699
-0.502181 -0.205926 5.010995 38.000000 29 619.542702
-1.168800 -0.528185 4.972189 73.000000 26 619.542704
-1.637560 -0.761546 4.965362 72.000000 24 619.542707
-2.124081 -0.988239 4.905662 71.000000 22 619.542709
-2.337597 -1.088068 4.287683 47.000000 20 619.542712
-2.267627 -1.055496 3.385606 56.000000 18 619.542715
-2.213995 -1.030530 2.725688 65.000000 16 619.542717
-2.205796 -1.034218 2.473857 67.000000 15 619.542675
-2.166911 -1.015984 2.011452 65.000000 13 619.542677
-2.133643 -0.999931 1.629491 77.000000 11 619.542680
-2.111368 -0.989489 1.306598 80.000000 9 619.542682
-2.091419 -0.979695 1.021421 86.000000 7 619.542685
-2.059668 -0.964384 0.758001 90.000000 5 619.542688
-2.046583 -0.957821 0.520477 95.000000 3 619.542690
-2.025195 -0.947381 0.293280 92.000000 1 619.542693
-2.179054 -1.017044 2.222173 67.000000 14 619.542700
-2.141377 -0.999456 1.804246 74.000000 12 619.542703
-2.115310 -0.986840 1.456715 80.000000 10 619.542706
-2.098619 -0.979051 1.157983 89.000000 8 619.542708
-2.076308 -0.968201 0.886044 92.000000 6 619.542711
-2.057539 -0.959012 0.638225 97.000000 4 619.542713
-2.037861 -0.949407 0.405377 97.000000 2 619.542716
-2.019518 -0.940861 0.183548 98.000000 0 619.542718
-0.052728 -0.012828 4.669096 25.000000 31 619.542729
-0.714937 -0.310103 4.954500 73.000000 28 619.542732
-0.950910 -0.411147 5.004183 69.000000 27 619.542734
-1.403568 -0.640055 4.975743 72.000000 25 619.542737
-1.873294 -0.866797 4.922318 68.000000 23 619.542739
-2.389666 -1.106223 4.891077 72.000000 21 619.542742
-2.309123 -1.068936 3.809791 54.000000 19 619.542744
-2.250624 -1.041853 3.044881 60.000000 17 619.542747
-0.273844 -0.103268 4.886214 35.000000 30 619.542755
-0.503922 -0.204485 5.020938 37.000000 29 619.542757
-1.170729 -0.523898 4.972189 73.000000 26 619.542760
-1.640340 -0.755539 4.965362 73.000000 24 619.542762
-2.127517 -0.980819 4.905662 70.000000 22 619.542765
-2.339013 -1.078809 4.283418 45.000000 20 619.542768
-2.268560 -1.046312 3.381617 56.000000 18 619.542770
-2.214500 -1.021376 2.722013 67.000000 16 619.542773
-2.206338 -1.024624 2.470352 67.000000 15 619.542730
-2.167089 -1.006395 2.008314 65.000000 13 619.542733
-2.133501 -0.990344 1.626750 76.000000 11 619.542735
-2.110962 -0.979879 1.304280 81.000000 9 619.542738
-2.094996 -0.972023 1.021421 88.000000 7 619.542741
-2.063189 -0.956828 0.758001 92.000000 5 619.542743
-2.045458 -0.948605 0.519545 93.000000 3 619.542746
-2.028490 -0.940306 0.293280 95.000000 1 619.542748
-2.182590 -1.009432 2.222173 67.000000 14 619.542756
-2.141184 -0.990279 1.801303 74.000000 12 619.542759
-2.114828 -0.977641 1.454183 79.000000 10 619.542761
-2.097904 -0.969815 1.155885 89.000000 8 619.542764
-2.075388 -0.958967 0.884401 93.000000 6 619.542766
-2.056462 -0.949786 0.637053 97.000000 4 619.542769
-2.036666 -0.940212 0.404687 97.000000 2 619.542771
-2.022952 -0.933453 0.183548 98.000000 0 619.542774
-0.052773 -0.012644 4.669096 26.000000 31 619.542785
-0.713872 -0.306686 4.939682 59.000000 28 619.542787
-0.952339 -0.407825 5.004183 69.000000 27 619.542790
-1.405794 -0.635151 4.975743 72.000000 25 619.542792
-1.876309 -0.860252 4.922318 69.000000 23 619.542795
-2.391335 -1.096876 4.886688 69.000000 21 619.542797
-2.310283 -1.059696 3.805658 55.000000 19 619.542800
-2.251333 -1.032654 3.041044 61.000000 17 619.542802
-0.274728 -0.102560 4.896197 35.000000 30 619.542810
-0.502119 -0.201820 4.996081 33.000000 29 619.542813
-1.172459 -0.520013 4.972189 74.000000 26 619.542815
-1.642837 -0.750095 4.965362 72.000000 24 619.542818
-2.130928 -0.973386 4.905662 69.000000 22 619.542820
-2.338020 -1.068470 4.274886 45.000000 20 619.542823
-2.266716 -1.035881 3.373638 55.000000 18 619.542826
-2.214792 -1.012617 2.718338 65.000000 16 619.542828
-2.206661 -1.015426 2.466848 65.000000 15 619.542786
-2.167053 -0.997197 2.005176 67.000000 13 619.542788
-2.133147 -0.981143 1.624008 76.000000 11 619.542791
-2.110344 -0.970653 1.301962 80.000000 9 619.542794
-2.093996 -0.963133 1.019548 88.000000 7 619.542796
-2.061992 -0.947977 0.756592 91.000000 5 619.542799
-2.044293 -0.939408 0.518612 95.000000 3 619.542801
-2.027234 -0.931141 0.292833 95.000000 1 619.542804
-2.182706 -1.000251 2.218848 69.000000 14 619.542812
-2.140953 -0.981115 1.798360 74.000000 12 619.542814
-2.114140 -0.968827 1.451651 77.000000 10 619.542817
-2.101109 -0.962853 1.155885 89.000000 8 619.542819
-2.078557 -0.952079 0.884401 92.000000 6 619.542822
-2.059600 -0.942961 0.637053 97.000000 4 619.542824
-2.039773 -0.933453 0.404687 97.000000 2 619.542827
-2.021494 -0.924662 0.183347 97.000000 0 619.542829
-0.052814 -0.012469 4.669096 26.000000 31 619.542840
-0.714885 -0.304317 4.939682 59.000000 28 619.542843
-0.953686 -0.404665 5.004183 68.000000 27 619.542845
-1.407893 -0.630486 4.975743 71.000000 25 619.542848
-1.879151 -0.854026 4.922318 69.000000 23 619.542850
-2.392778 -1.087948 4.882299 66.000000 21 619.542853
-2.308661 -1.049699 3.797392 54.000000 19 619.542855
-2.251827 -1.023856 3.037207 61.000000 17 619.542858
-0.275901 -0.101898 4.911172 35.000000 30 619.542866
-0.499843 -0.198886 4.966253 27.000000 29 619.542868
-1.174267 -0.515917 4.972189 74.000000 26 619.542871
-1.645445 -0.744356 4.965362 73.000000 24 619.542873
-2.134313 -0.965942 4.905662 69.000000 22 619.542876
-2.339360 -1.059226 4.270620 46.000000 20 619.542879
-2.267572 -1.026720 3.369648 56.000000 18 619.542881
-2.215400 -1.003094 2.714662 65.000000 16 619.542884
-2.206772 -1.006623 2.463343 67.000000 15 619.542841
-2.166806 -0.988390 2.002039 65.000000 13 619.542844
-2.132583 -0.972329 1.621267 75.000000 11 619.542846
-2.109520 -0.961811 1.299644 80.000000 9 619.542849
-2.097345 -0.955818 1.019548 88.000000 7 619.542852
-2.060923 -0.938785 0.755183 89.000000 5 619.542854
-2.043089 -0.930231 0.517680 92.000000 3 619.542857
-2.030472 -0.924059 0.292833 95.000000 1 619.542859
-2.182784 -0.991082 2.215523 69.000000 14 619.542867
-2.140684 -0.971964 1.795417 72.000000 12 619.542870
-2.113750 -0.959290 1.449118 80.000000 10 619.542872
-2.100491 -0.953270 1.153786 87.000000 8 619.542875
-2.077731 -0.942504 0.882759 92.000000 6 619.542877
-2.058615 -0.933399 0.635881 97.000000 4 619.542880
-2.038670 -0.923927 0.403997 96.000000 2 619.542882
-2.024709 -0.917600 0.183347 98.000000 0 619.542885
-0.052860 -0.012275 4.669096 23.000000 31 619.542896
-0.710267 -0.299284 4.900168 64.000000 28 619.542898
-0.955163 -0.401167 5.004183 64.000000 27 619.542901
-1.410194 -0.625322 4.975743 71.000000 25 619.542903
-1.880487 -0.846331 4.917716 68.000000 23 619.542906
-2.392381 -1.077204 4.873522 59.000000 21 619.542908
-2.309927 -1.040075 3.793259 54.000000 19 619.542911
-2.252641 -1.014279 3.033370 61.000000 17 619.542914
-0.277072 -0.101229 4.926147 32.000000 30 619.542921
-0.498049 -0.196165 4.941396 20.000000 29 619.542924
-1.176061 -0.511815 4.972189 71.000000 26 619.542926
-1.648033 -0.738608 4.965362 73.000000 24 619.542929
-2.137672 -0.958486 4.905662 70.000000 22 619.542932
-2.338284 -1.048919 4.262088 46.000000 20 619.542934
-2.268393 -1.017564 3.365659 56.000000 18 619.542937
-2.215621 -0.994354 2.710987 64.000000 16 619.542939
-2.207196 -0.997060 2.459839 67.000000 15 619.542897
-2.170414 -0.980441 2.002039 65.000000 13 619.542899
-2.132322 -0.962786 1.618525 75.000000 11 619.542902
-2.113031 -0.954073 1.299644 80.000000 9 619.542905
-2.096444 -0.946583 1.017675 88.000000 7 619.542907
-2.064187 -0.931585 0.755183 89.000000 5 619.542910
-2.041846 -0.921074 0.516747 93.000000 3 619.542912
-2.029145 -0.914918 0.292387 95.000000 1 619.542915
-2.182825 -0.981925 2.212198 69.000000 14 619.542923
-2.144064 -0.964486 1.795417 74.000000 12 619.542925
-2.116920 -0.952275 1.449118 80.000000 10 619.542928
-2.099502 -0.944437 1.151688 89.000000 8 619.542930
-2.076539 -0.933672 0.881116 92.000000 6 619.542933
-2.057266 -0.924575 0.634708 97.000000 4 619.542935
-2.041723 -0.917161 0.403997 97.000000 2 619.542938
-2.023342 -0.908480 0.183145 98.000000 0 619.542940
-0.052900 -0.012100 4.669096 23.000000 31 619.542951
-0.703366 -0.293639 4.845837 55.000000 28 619.542954
-0.955548 -0.397606 4.999288 64.000000 27 619.542956
-1.410892 -0.620041 4.970971 69.000000 25 619.542959
-1.883283 -0.840090 4.917716 68.000000 23 619.542961
-2.393752 -1.068288 4.869133 58.000000 21 619.542964
-2.308223 -1.030116 3.784993 54.000000 19 619.542966
-2.250137 -1.004191 3.025696 61.000000 17 619.542969
-0.278242 -0.100554 4.941122 31.000000 30 619.542977
-0.496242 -0.193459 4.916539 17.000000 29 619.542979
-1.177841 -0.507706 4.972189 71.000000 26 619.542982
-1.650602 -0.732850 4.965362 73.000000 24 619.542984
-2.141005 -0.951018 4.905662 69.000000 22 619.542987
-2.339548 -1.039691 4.257822 45.000000 20 619.542990
-2.269176 -1.008416 3.361669 57.000000 18 619.542992
-2.216153 -0.984850 2.707312 64.000000 16 619.542995
-2.207236 -0.988277 2.456334 66.000000 15 619.542952
-2.170100 -0.971648 1.998901 67.000000 13 619.542955
-2.131686 -0.954001 1.615784 74.000000 11 619.542958
-2.112140 -0.945251 1.297326 78.000000 9 619.542960
-2.099735 -0.939260 1.017675 88.000000 7 619.542963
-2.063047 -0.922416 0.753774 89.000000 5 619.542965
-2.045048 -0.913941 0.516747 93.000000 3 619.542968
-2.027780 -0.905799 0.291941 95.000000 1 619.542970
-2.182828 -0.972779 2.208874 67.000000 14 619.542978
-2.143726 -0.955351 1.792474 74.000000 12 619.542981
-2.116458 -0.942756 1.446586 77.000000 10 619.542983
-2.098803 -0.934889 1.149590 89.000000 8 619.542986
-2.075632 -0.924134 0.879473 92.000000 6 619.542988
-2.060641 -0.917028 0.634708 97.000000 4 619.542991
-2.040546 -0.907659 0.403307 97.000000 2 619.542993
-2.021936 -0.899381 0.182944 98.000000 0 619.542996
-0.052944 -0.011906 4.669096 20.000000 31 619.543007
-0.702283 -0.290170 4.831019 53.000000 28 619.543009
-0.956999 -0.394101 4.999288 70.000000 27 619.543012
-1.413156 -0.614866 4.970971 69.000000 25 619.543014
-1.886350 -0.833182 4.917716 68.000000 23 619.543017
-2.393269 -1.057571 4.860356 56.000000 21 619.543019
-2.309410 -1.020512 3.780860 54.000000 19 619.543022
-2.250870 -0.994641 3.021859 62.000000 17 619.543025
-0.279410 -0.099871 4.956097 30.000000 30 619.543032
-0.494920 -0.190960 4.896653 17.000000 29 619.543035
-1.179606 -0.503592 4.972189 74.000000 26 619.543037
-1.651570 -0.726389 4.960669 70.000000 24 619.543040
-2.144311 -0.943539 4.905662 70.000000 22 619.543043
-2.338389 -1.029417 4.249290 46.000000 20 619.543045
-2.269924 -0.999275 3.357679 57.000000 18 619.543048
-2.216304 -0.976129 2.703637 64.000000 16 619.543050
-2.207583 -0.978736 2.452830 66.000000 15 619.543008
-2.170089 -0.962110 1.995763 67.000000 13 619.543010
-2.131346 -0.944488 1.613042 74.000000 11 619.543013
-2.111540 -0.935709 1.295008 80.000000 9 619.543016
-2.098763 -0.930046 1.015802 86.000000 7 619.543018
-2.066254 -0.915209 0.753774 90.000000 5 619.543021
-2.043735 -0.904808 0.515814 93.000000 3 619.543023
-2.030929 -0.898715 0.291941 95.000000 1 619.543026
-2.182794 -0.963646 2.205549 69.000000 14 619.543034
-2.143350 -0.946229 1.789530 74.000000 12 619.543036
-2.115628 -0.933991 1.444053 79.000000 10 619.543039
-2.101892 -0.927924 1.149590 89.000000 8 619.543041
-2.074365 -0.915339 0.877831 92.000000 6 619.543044
-2.059223 -0.908228 0.633536 96.000000 4 619.543046
-2.043545 -0.900887 0.403307 96.000000 2 619.543049
-2.025063 -0.892318 0.182944 97.000000 0 619.543052
-0.052983 -0.011730 4.669096 20.000000 31 619.543062
-0.693172 -0.283724 4.761869 42.000000 28 619.543065
-0.958300 -0.390926 4.999288 69.000000 27 619.543067
-1.413815 -0.609585 4.966199 70.000000 25 619.543070
-1.887313 -0.826139 4.913113 68.000000 23 619.543072
-2.392374 -1.047706 4.851579 50.000000 21 619.543075
-2.310203 -1.011719 3.776727 55.000000 19 619.543078
-2.251220 -0.985885 3.018022 61.000000 17 619.543080
-0.280304 -0.099086 4.966080 29.000000 30 619.543088
-0.493089 -0.188282 4.871796 17.000000 29 619.543090
-1.181356 -0.499471 4.972189 73.000000 26 619.543093
-1.654096 -0.720620 4.960669 69.000000 24 619.543096
-2.145432 -0.935553 4.901161 70.000000 22 619.543098
-2.337008 -1.019571 4.240758 46.000000 20 619.543101
-2.267700 -0.989331 3.349700 58.000000 18 619.543103
-2.216590 -0.967031 2.699962 64.000000 16 619.543106
-2.207551 -0.969975 2.449325 64.000000 15 619.543063
-2.169703 -0.953342 1.992625 67.000000 13 619.543066
-2.130637 -0.935734 1.610301 75.000000 11 619.543069
-2.110575 -0.926920 1.292690 78.000000 9 619.543071
-2.097751 -0.920851 1.013929 88.000000 7 619.543074
-2.065043 -0.906064 0.752364 89.000000 5 619.543076
-2.042225 -0.896052 0.514882 93.000000 3 619.543079
-2.029338 -0.889975 0.291495 95.000000 1 619.543081
-2.182556 -0.954905 2.202224 69.000000 14 619.543089
-2.142772 -0.937496 1.786587 76.000000 12 619.543092
-2.114926 -0.924873 1.441521 79.000000 10 619.543094
-2.100960 -0.918763 1.147492 89.000000 8 619.543097
-2.077547 -0.908093 0.877831 92.000000 6 619.543099
-2.057926 -0.899089 0.632364 97.000000 4 619.543102
-2.042139 -0.891767 0.402618 96.000000 2 619.543104
