# .PCD v.7 - Point Cloud Data file format
VERSION .7
FIELDS x y z normal_x normal_y normal_z
SIZE 4 4 4 4 2 4
TYPE F F F F U F
COUNT 1 1 1 1 1 1
WIDTH 944
HEIGHT 1
VIEWPOINT 0 0 0 1 0 0 0
POINTS 944
DATA ascii
0.551107 0.394269 0.576948 34.000000 12 656.889862
0.555531 0.397287 0.486796 26.000000 10 656.889864
0.584187 0.417777 0.419468 34.000000 8 656.889867
0.592086 0.423270 0.342315 50.000000 6 656.889869
0.593316 0.423993 0.266601 51.000000 4 656.889872
0.600312 0.428834 0.194983 41.000000 2 656.889874
0.609651 0.435345 0.123895 42.000000 0 656.889877
0.039118 0.018480 3.404144 4.000000 31 656.889888
0.373452 0.252178 2.865194 9.000000 28 656.889890
0.413334 0.278445 2.419503 13.000000 27 656.889893
0.458166 0.321775 1.835949 30.000000 25 656.889895
0.483429 0.343453 1.456617 33.000000 23 656.889898
0.509974 0.362439 1.213379 34.000000 21 656.889900
0.523515 0.372058 1.015918 35.000000 19 656.889903
0.539872 0.383680 0.869333 34.000000 17 656.889906
0.187485 0.113974 3.623337 9.000000 30 656.889913
0.325176 0.208582 3.554372 8.000000 29 656.889916
0.433092 0.299668 2.063826 21.000000 26 656.889918
0.474017 0.335527 1.633497 34.000000 24 656.889921
0.495382 0.350902 1.318497 34.000000 22 656.889924
0.512087 0.362862 1.096764 34.000000 20 656.889926
0.523524 0.370963 0.924086 35.000000 18 656.889929
0.537583 0.380921 0.792551 35.000000 16 656.889931
0.549311 0.391395 0.742611 35.000000 15 656.889889
0.560476 0.399347 0.637106 35.000000 13 656.889891
0.563745 0.401528 0.538388 31.000000 11 656.889894
0.574922 0.409486 0.455882 19.000000 9 656.889897
0.586029 0.417243 0.378971 33.000000 7 656.889899
0.582637 0.414674 0.300013 43.000000 5 656.889902
0.600312 0.427254 0.231365 47.000000 3 656.889904
0.600391 0.427152 0.158970 47.000000 1 656.889907
0.547878 0.389078 0.679443 35.000000 14 656.889915
0.552480 0.392343 0.576948 35.000000 12 656.889917
0.556914 0.395346 0.486796 27.000000 10 656.889920
0.581941 0.413109 0.417370 33.000000 8 656.889922
0.589708 0.418468 0.340673 53.000000 6 656.889925
0.594792 0.421919 0.266601 51.000000 4 656.889927
0.601806 0.426736 0.194983 41.000000 2 656.889930
0.611167 0.433214 0.123895 42.000000 0 656.889933
0.039305 0.018388 3.419143 4.000000 31 656.889943
0.374330 0.250873 2.865194 9.000000 28 656.889946
0.413456 0.276435 2.414608 14.000000 27 656.889948
0.458061 0.319320 1.831177 30.000000 25 656.889951
0.483028 0.340638 1.452015 33.000000 23 656.889953
0.509279 0.359275 1.208990 34.000000 21 656.889956
0.522511 0.368606 1.011785 35.000000 19 656.889959
0.538589 0.379945 0.865496 34.000000 17 656.889961
0.188379 0.113615 3.633320 10.000000 30 656.889969
0.325902 0.207446 3.554372 8.000000 29 656.889971
0.433098 0.297443 2.058987 21.000000 26 656.889974
0.473774 0.332879 1.628805 34.000000 24 656.889977
0.496604 0.349171 1.318497 34.000000 22 656.889979
0.511217 0.359572 1.092499 34.000000 20 656.889982
0.524816 0.369133 0.924086 35.000000 18 656.889984
0.538909 0.379042 0.792551 35.000000 16 656.889987
0.547762 0.387416 0.739106 35.000000 15 656.889944
0.561867 0.397389 0.637106 35.000000 13 656.889947
0.561728 0.397144 0.535646 31.000000 11 656.889950
0.576348 0.407476 0.455882 19.000000 9 656.889952
0.583696 0.412519 0.377098 32.000000 7 656.889955
0.584081 0.412638 0.300013 41.000000 5 656.889957
0.597787 0.422321 0.230433 49.000000 3 656.889960
0.597811 0.422181 0.158524 48.000000 1 656.889962
0.549232 0.387163 0.679443 35.000000 14 656.889970
0.553846 0.390412 0.576948 35.000000 12 656.889973
0.554767 0.390916 0.484264 27.000000 10 656.889975
0.583379 0.411075 0.417370 33.000000 8 656.889978
0.591165 0.416407 0.340673 53.000000 6 656.889980
0.596261 0.419840 0.266601 48.000000 4 656.889983
0.603292 0.424633 0.194983 41.000000 2 656.889985
0.608590 0.428203 0.123694 43.000000 0 656.889988
0.039369 0.018251 3.419143 4.000000 31 656.889999
0.375204 0.249565 2.865194 9.000000 28 656.890001
0.414419 0.274990 2.414608 14.000000 27 656.890004
0.457945 0.316870 1.826405 30.000000 25 656.890006
0.482614 0.337829 1.447412 33.000000 23 656.890009
0.510530 0.357496 1.208990 34.000000 21 656.890011
0.523794 0.366780 1.011785 35.000000 19 656.890014
0.539912 0.378063 0.865496 34.000000 17 656.890017
0.189273 0.113252 3.643303 10.000000 30 656.890024
0.326624 0.206307 3.554372 8.000000 29 656.890027
0.433094 0.295221 2.054148 21.000000 26 656.890029
0.474933 0.331223 1.628805 34.000000 24 656.890032
0.496034 0.346189 1.313996 34.000000 22 656.890035
0.512469 0.357785 1.092499 34.000000 20 656.890037
0.523630 0.365574 0.920096 35.000000 18 656.890040
0.537449 0.375218 0.788876 35.000000 16 656.890042
0.549111 0.385502 0.739106 35.000000 15 656.890000
0.563250 0.395425 0.637106 35.000000 13 656.890003
0.563111 0.395180 0.535646 31.000000 11 656.890005
0.577767 0.405462 0.455882 19.000000 9 656.890008
0.585133 0.410479 0.377098 32.000000 7 656.890010
0.581590 0.407842 0.298603 40.000000 5 656.890013
0.595236 0.417412 0.229500 48.000000 3 656.890015
0.599281 0.420092 0.158524 46.000000 1 656.890018
0.547521 0.383103 0.676118 35.000000 14 656.890026
0.551894 0.386159 0.574005 35.000000 12 656.890028
0.556128 0.388977 0.484264 26.000000 10 656.890031
0.581092 0.406435 0.415272 33.000000 8 656.890033
0.588745 0.411635 0.339030 52.000000 6 656.890036
0.593739 0.414972 0.265428 49.000000 4 656.890038
0.604770 0.422525 0.194983 42.000000 2 656.890041
0.610081 0.426076 0.123694 43.000000 0 656.890044
0.039432 0.018113 3.419143 4.000000 31 656.890054
0.376072 0.248254 2.865194 9.000000 28 656.890057
0.414526 0.272983 2.409713 14.000000 27 656.890059
0.457817 0.314424 1.821634 31.000000 25 656.890062
0.482185 0.335028 1.442810 33.000000 23 656.890064
0.509807 0.354344 1.204601 34.000000 21 656.890067
0.522760 0.363344 1.007652 35.000000 19 656.890070
0.538596 0.374346 0.861659 34.000000 17 656.890072
0.189917 0.112737 3.648295 10.000000 30 656.890080
0.327342 0.205165 3.554372 8.000000 29 656.890082
0.433080 0.293003 2.049309 21.000000 26 656.890085
0.474667 0.328581 1.624112 34.000000 24 656.890088
0.497240 0.344455 1.313996 34.000000 22 656.890090
0.513715 0.355994 1.092499 34.000000 20 656.890093
0.524903 0.363744 0.920096 35.000000 18 656.890095
0.538756 0.373340 0.788876 35.000000 16 656.890098
0.550453 0.383583 0.739106 35.000000 15 656.890055
0.561433 0.391231 0.633968 35.000000 13 656.890058
0.564487 0.393212 0.535646 31.000000 11 656.890061
0.579178 0.403443 0.455882 19.000000 9 656.890063
0.582757 0.405785 0.375225 33.000000 7 656.890066
0.583010 0.405810 0.298603 44.000000 5 656.890068
0.596690 0.415331 0.229500 48.000000 3 656.890071
0.600744 0.417998 0.158524 44.000000 1 656.890073
0.548855 0.381189 0.676118 35.000000 14 656.890081
0.553238 0.384231 0.574005 34.000000 12 656.890084
0.557482 0.387034 0.484264 26.000000 10 656.890086
0.582507 0.404404 0.415272 33.000000 8 656.890089
0.590178 0.409577 0.339030 52.000000 6 656.890091
0.595184 0.412897 0.265428 51.000000 4 656.890094
0.602172 0.417589 0.194293 44.000000 2 656.890097
0.607458 0.421098 0.123492 42.000000 0 656.890099
0.039536 0.017990 3.424143 4.000000 31 656.890110
0.376286 0.246514 2.860255 9.000000 28 656.890112
0.415476 0.271534 2.409713 14.000000 27 656.890115
0.458912 0.312824 1.821634 31.000000 25 656.890117
0.481744 0.332234 1.438207 33.000000 23 656.890120
0.511041 0.352562 1.204601 34.000000 21 656.890123
0.524026 0.361517 1.007652 35.000000 19 656.890125
0.539899 0.372464 0.861659 34.000000 17 656.890128
0.190810 0.112365 3.658278 10.000000 30 656.890135
0.328057 0.204021 3.554372 8.000000 29 656.890138
0.433056 0.290789 2.044470 22.000000 26 656.890141
0.474389 0.325945 1.619419 34.000000 24 656.890143
0.496644 0.341484 1.309495 34.000000 22 656.890146
0.512806 0.352721 1.088233 34.000000 20 656.890148
0.523686 0.360201 0.916107 35.000000 18 656.890151
0.537262 0.369536 0.785201 35.000000 16 656.890153
0.548856 0.379630 0.735602 35.000000 15 656.890111
0.562796 0.389269 0.633968 35.000000 13 656.890114
0.565856 0.391240 0.535646 31.000000 11 656.890116
0.584227 0.403938 0.458200 19.000000 9 656.890119
0.584170 0.403748 0.375225 35.000000 7 656.890121
0.584423 0.403772 0.298603 44.000000 5 656.890124
0.598136 0.413246 0.229500 50.000000 3 656.890126
0.602199 0.415898 0.158524 49.000000 1 656.890129
0.547107 0.377152 0.672794 35.000000 14 656.890137
0.554576 0.382297 0.574005 35.000000 12 656.890139
0.555280 0.382639 0.481731 26.000000 10 656.890142
0.583915 0.402368 0.415272 33.000000 8 656.890144
0.591604 0.407514 0.339030 52.000000 6 656.890147
0.596622 0.410817 0.265428 54.000000 4 656.890149
0.603626 0.415484 0.194293 39.000000 2 656.890152
0.608925 0.418975 0.123492 44.000000 0 656.890155
0.039643 0.017859 3.429143 4.000000 31 656.890165
0.377187 0.245133 2.860255 9.000000 28 656.890168
0.416468 0.270009 2.409713 14.000000 27 656.890170
0.458818 0.310303 1.816862 31.000000 25 656.890173
0.482958 0.330466 1.438207 33.000000 23 656.890175
0.512330 0.350687 1.204601 34.000000 21 656.890178
0.523025 0.358004 1.003519 35.000000 19 656.890180
0.541261 0.370483 0.861659 34.000000 17 656.890183
0.191471 0.111809 3.663270 11.000000 30 656.890191
0.328802 0.202818 3.554372 8.000000 29 656.890193
0.433071 0.288503 2.039630 22.000000 26 656.890196
0.474154 0.323232 1.614726 34.000000 24 656.890198
0.497893 0.339661 1.309495 34.000000 22 656.890201
0.514095 0.350839 1.088233 34.000000 20 656.890203
0.525003 0.358280 0.916107 35.000000 18 656.890206
0.538613 0.367564 0.785201 35.000000 16 656.890209
0.550243 0.377616 0.735602 35.000000 15 656.890166
0.564219 0.387203 0.633968 35.000000 13 656.890169
0.563838 0.386798 0.532905 30.000000 11 656.890171
0.585704 0.401794 0.458200 18.000000 9 656.890174
0.585646 0.401604 0.375225 35.000000 7 656.890177
0.585899 0.401627 0.298603 44.000000 5 656.890179
0.599646 0.411051 0.229500 50.000000 3 656.890182
0.603719 0.413688 0.158524 42.000000 1 656.890184
0.548486 0.375144 0.672794 35.000000 14 656.890192
0.555974 0.380262 0.574005 34.000000 12 656.890195
0.556678 0.380601 0.481731 27.000000 10 656.890197
0.581639 0.397664 0.413174 33.000000 8 656.890200
0.593094 0.405343 0.339030 51.000000 6 656.890202
0.594110 0.405886 0.264256 54.000000 4 656.890205
0.601055 0.410476 0.193603 39.000000 2 656.890207
0.610456 0.416740 0.123492 42.000000 0 656.890210
0.039747 0.017735 3.434143 4.000000 31 656.890221
0.377387 0.243395 2.855315 9.000000 28 656.890223
0.416551 0.268004 2.404817 14.000000 27 656.890226
0.458658 0.307868 1.812090 31.000000 25 656.890228
0.482492 0.327680 1.433604 33.000000 23 656.890231
0.511569 0.347550 1.200213 34.000000 21 656.890233
0.524271 0.356176 1.003519 35.000000 19 656.890236
0.542550 0.368591 0.861659 34.000000 17 656.890238
0.191861 0.111140 3.663270 11.000000 30 656.890246
0.329508 0.201669 3.554372 8.000000 29 656.890249
0.434076 0.286989 2.039630 22.000000 26 656.890251
0.475280 0.321575 1.614726 34.000000 24 656.890254
0.497272 0.336700 1.304994 34.000000 22 656.890256
0.513157 0.347580 1.083967 34.000000 20 656.890259
0.526250 0.356445 0.916107 35.000000 18 656.890262
0.537086 0.363781 0.781526 35.000000 16 656.890264
0.551558 0.375693 0.735602 35.000000 15 656.890222
0.562349 0.383040 0.630830 35.000000 13 656.890224
0.565185 0.384827 0.532905 30.000000 11 656.890227
0.587103 0.399747 0.458200 18.000000 9 656.890229
0.587044 0.399558 0.375225 34.000000 7 656.890232
0.587298 0.399580 0.298603 44.000000 5 656.890235
0.601077 0.408955 0.229500 49.000000 3 656.890237
0.601042 0.408777 0.158078 43.000000 1 656.890240
0.549792 0.373227 0.672794 35.000000 14 656.890247
0.557298 0.378319 0.574005 34.000000 12 656.890250
0.554436 0.376235 0.479199 28.000000 10 656.890253
0.583024 0.395631 0.413174 35.000000 8 656.890255
0.590597 0.400620 0.337387 52.000000 6 656.890258
0.595523 0.403809 0.264256 54.000000 4 656.890260
0.602484 0.408376 0.193603 41.000000 2 656.890263
0.611907 0.414607 0.123492 42.000000 0 656.890265
0.039808 0.017596 3.434143 4.000000 31 656.890276
0.377580 0.241658 2.850376 9.000000 28 656.890279
0.417484 0.266548 2.404817 15.000000 27 656.890281
0.459730 0.306265 1.812090 31.000000 25 656.890284
0.483633 0.325994 1.433604 33.000000 23 656.890286
0.512779 0.345762 1.200213 34.000000 21 656.890289
0.523178 0.352771 0.999386 35.000000 19 656.890291
0.541176 0.364903 0.857822 34.000000 17 656.890294
0.191996 0.110327 3.658278 11.000000 30 656.890302
0.330210 0.200517 3.554372 8.000000 29 656.890304
0.434023 0.284782 2.034791 22.000000 26 656.890307
0.474967 0.318952 1.610034 34.000000 24 656.890309
0.496637 0.333748 1.300493 34.000000 22 656.890312
0.514368 0.345787 1.083967 34.000000 20 656.890315
0.524990 0.352924 0.912117 35.000000 18 656.890317
0.538353 0.361904 0.781526 35.000000 16 656.890320
0.549912 0.371768 0.732097 35.000000 15 656.890277
0.563683 0.381075 0.630830 35.000000 13 656.890280
0.563061 0.380511 0.530163 30.000000 11 656.890282
0.588495 0.397695 0.458200 18.000000 9 656.890285
0.588436 0.397506 0.375225 34.000000 7 656.890288
0.584713 0.394843 0.297194 45.000000 5 656.890290
0.602501 0.406855 0.229500 50.000000 3 656.890293
0.602465 0.406677 0.158078 49.000000 1 656.890295
0.551092 0.371306 0.672794 35.000000 14 656.890303
0.558615 0.376371 0.574005 34.000000 12 656.890306
0.555746 0.374297 0.479199 29.000000 10 656.890308
0.580637 0.391058 0.411076 35.000000 8 656.890311
0.591992 0.398556 0.337387 51.000000 6 656.890313
0.596929 0.401728 0.264256 52.000000 4 656.890316
0.599797 0.403506 0.192914 41.000000 2 656.890318
0.613351 0.412468 0.123492 44.000000 0 656.890321
0.039870 0.017457 3.434143 4.000000 31 656.890332
0.378421 0.240338 2.850376 8.000000 28 656.890334
0.417552 0.264545 2.399922 15.000000 27 656.890337
0.459550 0.303835 1.807319 31.000000 25 656.890339
0.484768 0.324304 1.433604 33.000000 23 656.890342
0.511992 0.342638 1.195824 34.000000 21 656.890344
0.524406 0.350942 0.999386 35.000000 19 656.890347
0.542446 0.363011 0.857822 34.000000 17 656.890349
0.191604 0.109263 3.643303 11.000000 30 656.890357
0.330873 0.199421 3.554372 8.000000 29 656.890360
0.433911 0.282655 2.029952 22.000000 26 656.890362
0.476022 0.317375 1.610034 34.000000 24 656.890365
0.497799 0.332012 1.300493 34.000000 22 656.890367
0.513402 0.342542 1.079701 34.000000 20 656.890370
0.526219 0.351089 0.912117 35.000000 18 656.890373
0.539550 0.360116 0.781526 35.000000 16 656.890375
0.551206 0.369846 0.732097 35.000000 15 656.890333
0.565010 0.379105 0.630830 35.000000 13 656.890335
0.564385 0.378543 0.530163 30.000000 11 656.890338
0.589879 0.395639 0.458200 18.000000 9 656.890341
0.589751 0.395552 0.375225 32.000000 7 656.890343
0.586019 0.392902 0.297194 44.000000 5 656.890346
0.603918 0.404749 0.229500 49.000000 3 656.890348
0.599744 0.401800 0.157632 47.000000 1 656.890351
0.552384 0.369380 0.672794 35.000000 14 656.890359
0.556565 0.372172 0.571062 34.000000 12 656.890361
0.553400 0.370056 0.476666 28.000000 10 656.890364
0.581930 0.389130 0.411076 36.000000 8 656.890366
0.593310 0.396590 0.337387 50.000000 6 656.890369
0.598258 0.399746 0.264256 51.000000 4 656.890371
0.601132 0.401515 0.192914 39.000000 2 656.890374
0.614715 0.410432 0.123492 44.000000 0 656.890376
0.039927 0.017325 3.434143 4.000000 31 656.890387
0.379216 0.239082 2.850376 8.000000 28 656.890390
0.417564 0.262617 2.395027 15.000000 27 656.890392
0.460555 0.302309 1.807319 31.000000 25 656.890395
0.485841 0.322694 1.433604 33.000000 23 656.890397
0.513125 0.340938 1.195824 34.000000 21 656.890400
0.523224 0.347644 0.995253 35.000000 19 656.890402
0.543647 0.361211 0.857822 34.000000 17 656.890405
0.191478 0.108311 3.633320 12.000000 30 656.890413
0.331108 0.197992 3.549401 8.000000 29 656.890415
0.433838 0.280457 2.025113 22.000000 26 656.890418
0.475688 0.314759 1.605341 34.000000 24 656.890420
0.497081 0.329157 1.295993 34.000000 22 656.890423
0.514535 0.340837 1.079701 34.000000 20 656.890426
0.527380 0.349343 0.912117 35.000000 18 656.890428
0.540804 0.358231 0.781526 35.000000 16 656.890431
0.549462 0.366039 0.728593 35.000000 15 656.890388
0.566264 0.377229 0.630830 34.000000 13 656.890391
0.565637 0.376669 0.530163 30.000000 11 656.890393
0.591188 0.393680 0.458200 18.000000 9 656.890396
0.591128 0.393491 0.375225 34.000000 7 656.890399
0.587387 0.390854 0.297194 44.000000 5 656.890401
0.605257 0.402744 0.229500 49.000000 3 656.890404
0.601073 0.399809 0.157632 45.000000 1 656.890406
0.550495 0.365480 0.669469 35.000000 14 656.890414
0.557796 0.370325 0.571062 34.000000 12 656.890417
0.554689 0.368122 0.476666 28.000000 10 656.890419
0.579504 0.384587 0.408978 35.000000 8 656.890422
0.590756 0.391906 0.335745 50.000000 6 656.890424
0.595599 0.394969 0.263084 53.000000 4 656.890427
0.602530 0.399414 0.192914 41.000000 2 656.890429
0.611979 0.405524 0.123290 44.000000 0 656.890432
0.039946 0.017172 3.429143 4.000000 31 656.890443
0.380048 0.237757 2.850376 10.000000 28 656.890445
0.417614 0.260620 2.390132 13.000000 27 656.890448
0.460356 0.299885 1.802547 31.000000 25 656.890450
0.485333 0.319921 1.429002 34.000000 23 656.890453
0.514312 0.339145 1.195824 34.000000 21 656.890455
0.524434 0.345816 0.995253 35.000000 19 656.890458
0.542228 0.357546 0.853985 34.000000 17 656.890461
0.191095 0.107221 3.618345 12.000000 30 656.890468
0.331798 0.196835 3.549401 8.000000 29 656.890471
0.434815 0.278941 2.025113 22.000000 26 656.890473
0.476783 0.313097 1.605341 34.000000 24 656.890476
0.498227 0.327420 1.295993 34.000000 22 656.890479
0.513542 0.337606 1.075435 34.000000 20 656.890481
0.526078 0.345844 0.908128 35.000000 18 656.890484
0.542051 0.356341 0.781526 35.000000 16 656.890486
0.550736 0.364119 0.728593 35.000000 15 656.890444
0.564330 0.373103 0.627692 34.000000 13 656.890446
0.566949 0.374692 0.530163 30.000000 11 656.890449
0.588863 0.389172 0.455882 17.000000 9 656.890452
0.588630 0.388870 0.373352 35.000000 7 656.890454
0.588748 0.388801 0.297194 44.000000 5 656.890457
0.606659 0.400629 0.229500 50.000000 3 656.890459
0.598309 0.394964 0.157186 45.000000 1 656.890462
0.551767 0.363557 0.669469 35.000000 14 656.890470
0.559086 0.368375 0.571062 34.000000 12 656.890472
0.555970 0.366184 0.476666 30.000000 10 656.890475
0.580842 0.382562 0.408978 36.000000 8 656.890477
0.592120 0.389842 0.335745 49.000000 6 656.890480
0.596974 0.392888 0.263084 54.000000 4 656.890482
0.599783 0.394587 0.192224 40.000000 2 656.890485
0.613391 0.403386 0.123290 44.000000 0 656.890487
0.040006 0.017032 3.429143 4.000000 31 656.890498
0.380876 0.236429 2.850376 10.000000 28 656.890501
0.417655 0.258625 2.385236 13.000000 27 656.890503
0.460145 0.297465 1.797775 31.000000 25 656.890506
0.486447 0.318225 1.429002 34.000000 23 656.890508
0.513488 0.336036 1.191435 34.000000 21 656.890511
0.525638 0.343983 0.995253 35.000000 19 656.890513
0.543473 0.355651 0.853985 34.000000 17 656.890516
0.190707 0.106135 3.603370 12.000000 30 656.890524
0.332022 0.195405 3.544429 8.000000 29 656.890526
0.434725 0.276746 2.020274 22.000000 26 656.890529
0.476428 0.310488 1.600648 34.000000 24 656.890531
0.497600 0.324403 1.291492 34.000000 22 656.890534
0.512592 0.334297 1.071169 34.000000 20 656.890537
0.527342 0.343913 0.908128 35.000000 18 656.890539
0.543353 0.354352 0.781526 35.000000 16 656.890542
0.552004 0.362194 0.728593 35.000000 15 656.890499
0.565629 0.371131 0.627692 35.000000 13 656.890502
0.568253 0.372711 0.530163 30.000000 11 656.890505
0.590217 0.387114 0.455882 17.000000 9 656.890507
0.589983 0.386813 0.373352 40.000000 7 656.890510
0.590101 0.386743 0.297194 44.000000 5 656.890512
0.608123 0.398403 0.229500 51.000000 3 656.890515
0.599752 0.392769 0.157186 46.000000 1 656.890517
0.549970 0.359489 0.666144 35.000000 14 656.890525
0.557049 0.364112 0.568119 35.000000 12 656.890528
0.553700 0.361785 0.474134 28.000000 10 656.890530
0.582241 0.380430 0.408978 36.000000 8 656.890533
0.593545 0.387669 0.335745 50.000000 6 656.890535
0.594340 0.388040 0.261911 54.000000 4 656.890538
0.601225 0.392386 0.192224 41.000000 2 656.890540
0.614796 0.401242 0.123290 45.000000 0 656.890543
0.040026 0.016872 3.424143 5.000000 31 656.890554
0.381740 0.235031 2.850376 10.000000 28 656.890556
0.418600 0.257093 2.385236 15.000000 27 656.890559
0.461233 0.295777 1.797775 31.000000 25 656.890561
0.487610 0.316440 1.429002 34.000000 23 656.890564
0.512707 0.332847 1.187047 34.000000 21 656.890566
0.526895 0.342054 0.995253 35.000000 19 656.890569
0.542084 0.351911 0.850148 34.000000 17 656.890572
0.190822 0.105330 3.598379 13.000000 30 656.890579
0.332702 0.194245 3.544429 9.000000 29 656.890582
0.435688 0.275227 2.020274 22.000000 26 656.890584
0.476059 0.307886 1.595955 34.000000 24 656.890587
0.498729 0.322664 1.291492 34.000000 22 656.890590
0.513756 0.332506 1.071169 34.000000 20 656.890592
0.526009 0.340433 0.904138 35.000000 18 656.890595
0.541680 0.350706 0.777851 35.000000 16 656.890597
0.553327 0.360169 0.728593 35.000000 15 656.890555
0.563723 0.366932 0.624554 35.000000 13 656.890557
0.569616 0.370626 0.530163 30.000000 11 656.890560
0.591632 0.384948 0.455882 17.000000 9 656.890563
0.591330 0.384751 0.373352 36.000000 7 656.890565
0.587426 0.382065 0.295785 44.000000 5 656.890568
0.609510 0.396277 0.229500 48.000000 3 656.890570
0.596944 0.387959 0.156739 47.000000 1 656.890573
0.551222 0.357567 0.666144 35.000000 14 656.890581
0.558316 0.362165 0.568119 35.000000 12 656.890583
0.554896 0.359947 0.474134 28.000000 10 656.890586
0.579691 0.376028 0.406880 35.000000 8 656.890588
0.590865 0.383129 0.334102 50.000000 6 656.890591
0.595623 0.386067 0.261911 53.000000 4 656.890593
0.602523 0.390390 0.192224 42.000000 2 656.890596
0.616192 0.399094 0.123290 44.000000 0 656.890599
0.040040 0.016726 3.419143 5.000000 31 656.890609
0.382517 0.233764 2.850376 10.000000 28 656.890612
0.418581 0.255174 2.380341 15.000000 27 656.890614
0.460951 0.293444 1.793003 31.000000 25 656.890617
0.488657 0.314822 1.429002 34.000000 23 656.890619
0.513808 0.331145 1.187047 34.000000 21 656.890622
0.525661 0.338781 0.991120 35.000000 19 656.890625
0.543248 0.350111 0.850148 34.000000 17 656.890627
0.191189 0.104663 3.598379 15.000000 30 656.890635
0.332916 0.192816 3.539458 8.000000 29 656.890637
0.436646 0.273704 2.020274 22.000000 26 656.890640
0.477131 0.306223 1.595955 34.000000 24 656.890643
0.497964 0.319831 1.286991 34.000000 22 656.890645
0.512661 0.329391 1.066903 34.000000 20 656.890648
0.527135 0.338687 0.904138 35.000000 18 656.890650
0.542900 0.348813 0.777851 35.000000 16 656.890653
0.551523 0.356396 0.725088 35.000000 15 656.890610
0.564936 0.365060 0.624554 34.000000 13 656.890613
0.567329 0.366466 0.527422 30.000000 11 656.890616
0.592906 0.382984 0.455882 17.000000 9 656.890618
0.588775 0.380170 0.371479 36.000000 7 656.890621
0.588756 0.380013 0.295785 45.000000 5 656.890623
0.610821 0.394254 0.229500 48.000000 3 656.890626
0.598227 0.385978 0.156739 47.000000 1 656.890628
0.549265 0.353715 0.662819 35.000000 14 656.890636
0.559514 0.360312 0.568119 35.000000 12 656.890639
0.556149 0.358008 0.474134 30.000000 10 656.890641
0.581001 0.374002 0.406880 36.000000 8 656.890644
0.592199 0.381064 0.334102 50.000000 6 656.890646
0.592880 0.381356 0.260739 54.000000 4 656.890649
0.599717 0.385606 0.191534 43.000000 2 656.890651
0.613379 0.394239 0.123089 43.000000 0 656.890654
0.040099 0.016586 3.419143 4.000000 31 656.890665
0.382666 0.232025 2.845437 10.000000 28 656.890667
0.419469 0.253711 2.380341 15.000000 27 656.890670
0.461972 0.291833 1.793003 31.000000 25 656.890672
0.488107 0.312062 1.424399 33.000000 23 656.890675
0.512942 0.328059 1.182658 34.000000 21 656.890677
0.526840 0.336944 0.991120 35.000000 19 656.890680
0.541766 0.346486 0.846311 34.000000 17 656.890683
0.191553 0.103995 3.598379 15.000000 30 656.890690
0.333587 0.191653 3.539458 8.000000 29 656.890693
0.436530 0.271515 2.015435 23.000000 26 656.890695
0.476742 0.303628 1.591262 34.000000 24 656.890698
0.499077 0.318091 1.286991 34.000000 22 656.890701
0.513808 0.327599 1.066903 34.000000 20 656.890703
0.525773 0.335224 0.900149 35.000000 18 656.890706
0.541256 0.345093 0.774175 35.000000 16 656.890708
0.552764 0.354469 0.725088 35.000000 15 656.890666
0.566207 0.363086 0.624554 34.000000 13 656.890669
0.568605 0.364484 0.527422 30.000000 11 656.890671
0.594239 0.380912 0.455882 17.000000 9 656.890674
0.590098 0.378113 0.371479 36.000000 7 656.890676
0.590079 0.377955 0.295785 45.000000 5 656.890679
0.608057 0.389470 0.228567 51.000000 3 656.890681
0.599571 0.383887 0.156739 45.000000 1 656.890684
0.550496 0.351796 0.662819 35.000000 14 656.890692
0.560768 0.358357 0.568119 35.000000 12 656.890694
0.557396 0.356064 0.474134 29.000000 10 656.890697
0.582303 0.371972 0.406880 36.000000 8 656.890699
0.593525 0.378995 0.334102 51.000000 6 656.890702
0.594207 0.379284 0.260739 52.000000 4 656.890704
0.601059 0.383510 0.191534 45.000000 2 656.890707
0.614751 0.392096 0.123089 46.000000 0 656.890710
0.040156 0.016446 3.419143 4.000000 31 656.890720
0.383474 0.230688 2.845437 10.000000 28 656.890723
0.419479 0.251722 2.375446 15.000000 27 656.890725
0.461723 0.289426 1.788232 31.000000 25 656.890728
0.489193 0.310356 1.424399 33.000000 23 656.890730
0.514084 0.326266 1.182658 34.000000 21 656.890733
0.528013 0.335103 0.991120 35.000000 19 656.890736
0.542972 0.344593 0.846311 34.000000 17 656.890738
0.192426 0.103598 3.608362 17.000000 30 656.890746
0.334253 0.190487 3.539458 9.000000 29 656.890748
0.437476 0.269989 2.015435 23.000000 26 656.890751
0.476340 0.301041 1.586570 34.000000 24 656.890754
0.498344 0.315183 1.282490 34.000000 22 656.890756
0.514948 0.325804 1.066903 34.000000 20 656.890759
0.526940 0.333387 0.900149 35.000000 18 656.890761
0.542457 0.343201 0.774175 35.000000 16 656.890764
0.553998 0.352537 0.725088 35.000000 15 656.890721
0.564187 0.359018 0.621417 34.000000 13 656.890724
0.566346 0.360252 0.524680 29.000000 11 656.890727
0.599303 0.381213 0.458200 17.000000 9 656.890729
0.591415 0.376051 0.371479 40.000000 7 656.890732
0.591395 0.375893 0.295785 45.000000 5 656.890734
0.609413 0.387345 0.228567 50.000000 3 656.890737
0.596704 0.379121 0.156293 45.000000 1 656.890739
0.551721 0.349872 0.662819 35.000000 14 656.890747
0.558602 0.354232 0.565176 34.000000 12 656.890750
0.554994 0.351808 0.471602 28.000000 10 656.890752
0.583597 0.369937 0.406880 36.000000 8 656.890755
0.594845 0.376921 0.334102 51.000000 6 656.890757
0.595527 0.377208 0.260739 54.000000 4 656.890760
0.602394 0.381410 0.191534 43.000000 2 656.890763
0.611895 0.387275 0.122887 46.000000 0 656.890765
0.040255 0.016319 3.424143 4.000000 31 656.890776
0.384277 0.229348 2.845437 10.000000 28 656.890778
0.420355 0.250256 2.375446 15.000000 27 656.890781
0.462730 0.287812 1.788232 31.000000 25 656.890783
0.488620 0.307606 1.419797 34.000000 23 656.890786
0.513193 0.323193 1.178269 33.000000 21 656.890789
0.529180 0.333257 0.991120 35.000000 19 656.890791
0.541458 0.340987 0.842474 34.000000 17 656.890794
0.192018 0.102520 3.593387 18.000000 30 656.890801
0.334916 0.189319 3.539458 9.000000 29 656.890804
0.437342 0.267804 2.010595 23.000000 26 656.890807
0.475926 0.298459 1.581877 34.000000 24 656.890809
0.499441 0.313441 1.282490 34.000000 22 656.890812
0.513874 0.322618 1.062637 34.000000 20 656.890814
0.525548 0.329943 0.896159 35.000000 18 656.890817
0.543652 0.341306 0.774175 35.000000 16 656.890819
0.555225 0.350601 0.725088 35.000000 15 656.890777
0.565436 0.357046 0.621417 34.000000 13 656.890780
0.567600 0.358273 0.524680 29.000000 11 656.890782
0.600630 0.379119 0.458200 17.000000 9 656.890785
0.588803 0.371510 0.369606 40.000000 7 656.890787
0.592703 0.373826 0.295785 45.000000 5 656.890790
0.606606 0.382595 0.227635 49.000000 3 656.890792
0.598023 0.377036 0.156293 46.000000 1 656.890795
0.552939 0.347944 0.662819 35.000000 14 656.890803
0.559835 0.352280 0.565176 34.000000 12 656.890805
0.556219 0.349869 0.471602 28.000000 10 656.890808
0.584885 0.367897 0.406880 36.000000 8 656.890810
0.596157 0.374842 0.334102 49.000000 6 656.890813
0.596841 0.375127 0.260739 54.000000 4 656.890815
0.603722 0.379305 0.191534 42.000000 2 656.890818
0.613243 0.385137 0.122887 45.000000 0 656.890821
0.040270 0.016165 3.419143 5.000000 31 656.890832
0.385744 0.228400 2.850376 11.000000 28 656.890835
0.421226 0.248787 2.375446 15.000000 27 656.890837
0.462461 0.285411 1.783460 31.000000 25 656.890840
0.488034 0.304863 1.415194 34.000000 23 656.890842
0.514318 0.321400 1.178269 33.000000 21 656.890845
0.527953 0.329917 0.986987 35.000000 19 656.890847
0.542645 0.339095 0.842474 34.000000 17 656.890850
0.191092 0.101179 3.568429 31.000000 30 656.890858
0.335109 0.187889 3.534486 8.000000 29 656.890860
0.438274 0.266276 2.010595 23.000000 26 656.890863
0.476965 0.296796 1.581877 34.000000 24 656.890865
0.500532 0.311696 1.282490 34.000000 22 656.890868
0.514997 0.320822 1.062637 34.000000 20 656.890870
0.526696 0.328107 0.896159 35.000000 18 656.890873
0.544840 0.339406 0.774175 35.000000 16 656.890876
0.553424 0.346767 0.721584 35.000000 15 656.890833
0.566679 0.355070 0.621417 35.000000 13 656.890836
0.568847 0.356290 0.524680 29.000000 11 656.890838
0.601950 0.377020 0.458200 16.000000 9 656.890841
0.590096 0.369452 0.369606 40.000000 7 656.890844
0.589938 0.369210 0.294376 41.000000 5 656.890846
0.607938 0.380475 0.227635 48.000000 3 656.890849
0.599336 0.374946 0.156293 42.000000 1 656.890851
0.554150 0.346012 0.662819 35.000000 14 656.890859
0.561062 0.350324 0.565176 34.000000 12 656.890862
0.557436 0.347925 0.471602 30.000000 10 656.890864
0.582316 0.363450 0.404782 36.000000 8 656.890867
0.593455 0.370259 0.332459 48.000000 6 656.890869
0.598146 0.373041 0.260739 50.000000 4 656.890872
0.605042 0.377195 0.191534 42.000000 2 656.890874
0.614584 0.382994 0.122887 45.000000 0 656.890877
0.040368 0.016037 3.424143 5.000000 31 656.890888
0.386539 0.227052 2.850376 11.000000 28 656.890890
0.422092 0.247316 2.375446 15.000000 27 656.890893
0.463454 0.283795 1.783460 31.000000 25 656.890895
0.487435 0.302129 1.410592 34.000000 23 656.890898
0.513400 0.318340 1.173881 34.000000 21 656.890900
0.529102 0.328072 0.986987 35.000000 19 656.890903
0.543826 0.337198 0.842474 34.000000 17 656.890905
0.190930 0.100244 3.558446 38.000000 30 656.890913
0.335296 0.186459 3.529515 8.000000 29 656.890916
0.438124 0.264095 2.005756 23.000000 26 656.890918
0.476529 0.294223 1.577184 34.000000 24 656.890921
0.499764 0.308802 1.277989 34.000000 22 656.890923
0.513895 0.317651 1.058371 34.000000 20 656.890926
0.527838 0.326266 0.896159 35.000000 18 656.890929
0.543138 0.335720 0.770500 35.000000 16 656.890931
0.554631 0.344834 0.721584 35.000000 15 656.890889
0.567915 0.353090 0.621417 35.000000 13 656.890891
0.570087 0.354302 0.524680 29.000000 11 656.890894
0.603262 0.374916 0.458200 16.000000 9 656.890896
0.591382 0.367390 0.369606 39.000000 7 656.890899
0.591223 0.367149 0.294376 41.000000 5 656.890902
0.605089 0.375759 0.226702 49.000000 3 656.890904
0.596410 0.370225 0.155847 41.000000 1 656.890907
0.552180 0.342108 0.659494 35.000000 14 656.890914
0.558845 0.346235 0.562232 34.000000 12 656.890917
0.558647 0.345977 0.471602 29.000000 10 656.890920
0.583581 0.361416 0.404782 36.000000 8 656.890922
0.594744 0.368185 0.332459 48.000000 6 656.890925
0.599445 0.370951 0.260739 48.000000 4 656.890927
0.606355 0.375081 0.191534 42.000000 2 656.890930
0.615917 0.380847 0.122887 44.000000 0 656.890932
0.040298 0.015859 3.409143 5.000000 31 656.890943
0.387329 0.225702 2.850376 11.000000 28 656.890946
0.422952 0.245841 2.375446 15.000000 27 656.890948
0.463165 0.281400 1.778688 31.000000 25 656.890951
0.488486 0.300425 1.410592 34.000000 23 656.890953
0.514509 0.316546 1.173881 33.000000 21 656.890956
0.530244 0.326223 0.986987 35.000000 19 656.890958
0.545000 0.335298 0.842474 34.000000 17 656.890961
0.188188 0.097989 3.498547 72.000000 30 656.890969
0.335008 0.184774 3.519572 8.000000 29 656.890971
0.437963 0.261919 2.000917 23.000000 26 656.890974
0.477554 0.292558 1.577184 34.000000 24 656.890976
0.500839 0.307056 1.277989 34.000000 22 656.890979
0.515001 0.315855 1.058371 34.000000 20 656.890982
0.526405 0.322846 0.892170 35.000000 18 656.890984
0.544306 0.333822 0.770500 35.000000 16 656.890987
0.555831 0.342895 0.721584 35.000000 15 656.890944
0.565831 0.349061 0.618279 34.000000 13 656.890947
0.567761 0.350115 0.521939 29.000000 11 656.890949
0.600796 0.370483 0.455882 16.000000 9 656.890952
0.588715 0.362891 0.367733 39.000000 7 656.890955
0.592501 0.365083 0.294376 46.000000 5 656.890957
0.606397 0.373645 0.226702 49.000000 3 656.890960
0.597699 0.368141 0.155847 42.000000 1 656.890962
0.553371 0.340179 0.659494 35.000000 14 656.890970
0.560050 0.344282 0.562232 34.000000 12 656.890973
0.556179 0.341768 0.469069 30.000000 10 656.890975
0.584839 0.359376 0.404782 38.000000 8 656.890978
0.596025 0.366107 0.332459 50.000000 6 656.890980
0.596594 0.366313 0.259567 53.000000 4 656.890983
0.607661 0.372962 0.191534 44.000000 2 656.890985
0.617242 0.378694 0.122887 45.000000 0 656.890988
0.040353 0.015719 3.409143 5.000000 31 656.890999
0.388114 0.224348 2.850376 11.000000 28 656.891001
0.423808 0.244363 2.375446 15.000000 27 656.891004
0.464145 0.279782 1.778688 32.000000 25 656.891006
0.487864 0.297701 1.405989 34.000000 23 656.891009
0.515610 0.314748 1.173881 34.000000 21 656.891011
0.528977 0.322904 0.982854 35.000000 19 656.891014
0.543430 0.331723 0.838637 34.000000 17 656.891016
0.186723 0.096411 3.463606 95.000000 30 656.891024
0.335182 0.183348 3.514601 8.000000 29 656.891027
0.437793 0.259747 1.996078 23.000000 26 656.891029
0.478572 0.290889 1.577184 34.000000 24 656.891032
0.500048 0.304174 1.273488 34.000000 22 656.891034
0.513872 0.312700 1.054105 34.000000 20 656.891037
0.527528 0.321007 0.892170 35.000000 18 656.891040
0.545468 0.331920 0.770500 35.000000 16 656.891042
0.557025 0.340953 0.721584 35.000000 15 656.891000
0.567046 0.347084 0.618279 34.000000 13 656.891002
0.568980 0.348131 0.521939 29.000000 11 656.891005
0.602086 0.368384 0.455882 16.000000 9 656.891008
0.589978 0.360834 0.367733 46.000000 7 656.891010
0.589679 0.360510 0.292967 46.000000 5 656.891013
0.603507 0.368964 0.225769 51.000000 3 656.891015
0.598980 0.366053 0.155847 42.000000 1 656.891018
0.554555 0.338245 0.659494 35.000000 14 656.891026
0.561249 0.342325 0.562232 34.000000 12 656.891028
0.557368 0.339825 0.469069 29.000000 10 656.891031
0.582215 0.354970 0.402684 36.000000 8 656.891033
0.597300 0.364024 0.332459 52.000000 6 656.891036
0.597869 0.364228 0.259567 57.000000 4 656.891038
0.604729 0.368263 0.190844 46.000000 2 656.891041
0.618560 0.376537 0.122887 47.000000 0 656.891043
0.040114 0.015494 3.374145 5.000000 31 656.891054
0.388895 0.222992 2.850376 11.000000 28 656.891057
0.423774 0.242377 2.370551 15.000000 27 656.891059
0.465119 0.278160 1.778688 32.000000 25 656.891062
0.488900 0.295996 1.405989 34.000000 23 656.891064
0.514657 0.311705 1.169492 34.000000 21 656.891067
0.530101 0.321056 0.982854 35.000000 19 656.891069
0.544585 0.329824 0.838637 34.000000 17 656.891072
0.196363 0.100459 3.643303 92.000000 30 656.891080
0.334881 0.181669 3.504658 9.000000 29 656.891082
0.438697 0.258218 1.996078 23.000000 26 656.891085
0.478107 0.288326 1.572491 34.000000 24 656.891087
0.501106 0.302427 1.273488 34.000000 22 656.891090
0.514960 0.310904 1.054105 34.000000 20 656.891093
0.526065 0.317605 0.888180 34.000000 18 656.891095
0.543721 0.328262 0.766825 35.000000 16 656.891098
0.555163 0.337156 0.718079 35.000000 15 656.891055
0.568254 0.345103 0.618279 34.000000 13 656.891058
0.566617 0.343973 0.519197 29.000000 11 656.891060
0.599581 0.363981 0.453564 16.000000 9 656.891063
0.587270 0.356367 0.365860 47.000000 7 656.891066
0.590934 0.358449 0.292967 46.000000 5 656.891068
0.604791 0.366855 0.225769 51.000000 3 656.891071
0.600254 0.363960 0.155847 36.000000 1 656.891073
0.552537 0.334374 0.656169 35.000000 14 656.891081
0.558982 0.338271 0.559289 34.000000 12 656.891084
0.558551 0.337877 0.469069 30.000000 10 656.891086
0.583450 0.352936 0.402684 38.000000 8 656.891089
0.598567 0.361937 0.332459 49.000000 6 656.891091
0.599137 0.362139 0.259567 59.000000 4 656.891094
0.606011 0.366150 0.190844 42.000000 2 656.891096
0.615595 0.371793 0.122686 46.000000 0 656.891099
0.040420 0.015425 3.404144 5.000000 31 656.891110
0.388995 0.221250 2.845437 11.000000 28 656.891112
0.424617 0.240897 2.370551 15.000000 27 656.891115
0.464802 0.275773 1.773916 32.000000 25 656.891117
0.488256 0.293282 1.401387 34.000000 23 656.891120
0.515742 0.309907 1.169492 34.000000 21 656.891122
0.531219 0.319203 0.982854 35.000000 19 656.891125
0.542985 0.326270 0.834800 34.000000 17 656.891128
0.202667 0.102755 3.758110 90.000000 30 656.891135
0.335042 0.180247 3.499686 8.000000 29 656.891138
0.438509 0.256051 1.991238 23.000000 26 656.891140
0.479110 0.286655 1.572491 34.000000 24 656.891143
0.500290 0.299557 1.268988 34.000000 22 656.891146
0.516043 0.309105 1.054105 34.000000 20 656.891148
0.527171 0.315767 0.888180 35.000000 18 656.891151
0.544864 0.326362 0.766825 35.000000 16 656.891153
0.556337 0.335216 0.718079 35.000000 15 656.891111
0.566121 0.341108 0.615141 34.000000 13 656.891113
0.567814 0.341993 0.519197 29.000000 11 656.891116
0.600848 0.361886 0.453564 16.000000 9 656.891119
0.588511 0.354315 0.365860 46.000000 7 656.891121
0.588071 0.353911 0.291557 47.000000 5 656.891124
0.606068 0.364742 0.225769 51.000000 3 656.891126
0.601521 0.361862 0.155847 36.000000 1 656.891129
0.553701 0.332443 0.656169 35.000000 14 656.891137
0.560159 0.336318 0.559289 34.000000 12 656.891139
0.559727 0.335925 0.469069 30.000000 10 656.891142
0.584679 0.350897 0.402684 37.000000 8 656.891144
0.599827 0.359845 0.332459 50.000000 6 656.891147
0.600397 0.360045 0.259567 58.000000 4 656.891149
0.603038 0.361486 0.190154 43.000000 2 656.891152
0.616889 0.369642 0.122686 45.000000 0 656.891154
0.040474 0.015284 3.404144 5.000000 31 656.891165
0.389088 0.219509 2.840497 11.000000 28 656.891168
0.424568 0.238914 2.365655 15.000000 27 656.891170
0.465762 0.274149 1.773916 32.000000 25 656.891173
0.489277 0.291576 1.401387 34.000000 23 656.891175
0.514762 0.306878 1.165103 34.000000 21 656.891178
0.529913 0.315906 0.978721 35.000000 19 656.891180
0.544120 0.324373 0.834800 34.000000 17 656.891183
0.205100 0.103077 3.798043 98.000000 30 656.891191
0.335198 0.178826 3.494715 8.000000 29 656.891193
0.439400 0.254519 1.991238 23.000000 26 656.891196
0.478624 0.284100 1.567799 34.000000 24 656.891198
0.501333 0.297809 1.268988 34.000000 22 656.891201
0.514876 0.305969 1.049839 34.000000 20 656.891204
0.528270 0.313925 0.888180 34.000000 18 656.891206
0.546000 0.324458 0.766825 35.000000 16 656.891209
0.557503 0.333272 0.718079 35.000000 15 656.891166
0.567308 0.339130 0.615141 34.000000 13 656.891169
0.569005 0.340009 0.519197 28.000000 11 656.891172
0.598304 0.357514 0.451246 16.000000 9 656.891174
0.589744 0.352259 0.365860 48.000000 7 656.891177
0.585184 0.349397 0.290148 47.000000 5 656.891179
0.607337 0.362624 0.225769 51.000000 3 656.891182
0.598504 0.357208 0.155401 44.000000 1 656.891184
0.554858 0.330508 0.656169 35.000000 14 656.891192
0.561330 0.334360 0.559289 34.000000 12 656.891195
0.557192 0.331764 0.466537 29.000000 10 656.891197
0.585900 0.348854 0.402684 37.000000 8 656.891200
0.597021 0.355334 0.330817 47.000000 6 656.891202
0.601650 0.357947 0.259567 58.000000 4 656.891205
0.604296 0.359379 0.190154 44.000000 2 656.891207
0.618175 0.367486 0.122686 47.000000 0 656.891210
0.040611 0.015165 3.414144 5.000000 31 656.891221
0.389174 0.217771 2.835558 9.000000 28 656.891223
0.424510 0.236935 2.360760 15.000000 27 656.891226
0.465426 0.271768 1.769145 32.000000 25 656.891228
0.490291 0.289866 1.401387 34.000000 23 656.891231
0.515830 0.305079 1.165103 33.000000 21 656.891233
0.531012 0.314055 0.978721 35.000000 19 656.891236
0.542490 0.320840 0.830963 34.000000 17 656.891239
0.205978 0.102616 3.808027 105.000000 30 656.891246
0.335348 0.177406 3.489744 8.000000 29 656.891249
0.439195 0.252357 1.986399 23.000000 26 656.891251
0.479613 0.282428 1.567799 34.000000 24 656.891254
0.502370 0.296057 1.268988 34.000000 22 656.891257
0.515941 0.304170 1.049839 34.000000 20 656.891259
0.526766 0.310549 0.884191 34.000000 18 656.891262
0.544208 0.320828 0.763150 35.000000 16 656.891264
0.555596 0.329504 0.714575 35.000000 15 656.891222
0.565140 0.335162 0.612003 34.000000 13 656.891224
0.566591 0.335888 0.516456 28.000000 11 656.891227
0.599549 0.355423 0.451246 16.000000 9 656.891230
0.590970 0.350198 0.365860 45.000000 7 656.891232
0.586400 0.347352 0.290148 47.000000 5 656.891235
0.608600 0.360501 0.225769 51.000000 3 656.891237
0.599747 0.355117 0.155401 44.000000 1 656.891240
0.552794 0.326670 0.652844 35.000000 14 656.891248
0.559014 0.330343 0.556346 34.000000 12 656.891250
0.558347 0.329817 0.466537 29.000000 10 656.891253
0.583206 0.344498 0.400586 39.000000 8 656.891255
0.598258 0.353248 0.330817 47.000000 6 656.891258
0.602896 0.355845 0.259567 57.000000 4 656.891260
0.601282 0.354751 0.189465 44.000000 2 656.891263
0.619454 0.365326 0.122686 45.000000 0 656.891266
0.040664 0.015023 3.414144 5.000000 31 656.891276
0.389252 0.216035 2.830619 9.000000 28 656.891279
0.425334 0.235452 2.360760 16.000000 27 656.891281
0.465080 0.269394 1.764373 32.000000 25 656.891284
0.491300 0.288153 1.401387 34.000000 23 656.891286
0.516892 0.303277 1.165103 34.000000 21 656.891289
0.532105 0.312199 0.978721 35.000000 19 656.891292
0.543607 0.318944 0.830963 34.000000 17 656.891294
0.207116 0.102277 3.823001 113.000000 30 656.891302
0.335492 0.175988 3.484772 9.000000 29 656.891304
0.440073 0.250822 1.986399 23.000000 26 656.891307
0.479105 0.279881 1.563106 34.000000 24 656.891310
0.501571 0.293115 1.264487 34.000000 22 656.891312
0.517053 0.302277 1.049839 34.000000 20 656.891315
0.527901 0.308616 0.884191 34.000000 18 656.891317
0.545381 0.318831 0.763150 35.000000 16 656.891320
0.556743 0.327563 0.714575 35.000000 15 656.891277
0.566307 0.333187 0.612003 34.000000 13 656.891280
0.567760 0.333909 0.516456 29.000000 11 656.891283
0.600786 0.353328 0.451246 16.000000 9 656.891285
0.588192 0.345784 0.363987 46.000000 7 656.891288
0.587609 0.345303 0.290148 48.000000 5 656.891290
0.609917 0.358268 0.225769 53.000000 3 656.891293
0.601045 0.352916 0.155401 45.000000 1 656.891295
0.553987 0.324641 0.652844 35.000000 14 656.891303
0.560221 0.328291 0.556346 33.000000 12 656.891306
0.559552 0.327768 0.466537 30.000000 10 656.891308
0.584465 0.342358 0.400586 39.000000 8 656.891311
0.595473 0.348667 0.329174 52.000000 6 656.891313
0.604196 0.353633 0.259567 59.000000 4 656.891316
0.602578 0.352545 0.189465 43.000000 2 656.891318
0.620726 0.363162 0.122686 44.000000 0 656.891321
0.040761 0.014885 3.419143 5.000000 31 656.891332
0.389360 0.214233 2.825680 10.000000 28 656.891334
0.425301 0.233402 2.355865 15.000000 27 656.891337
0.466064 0.267687 1.764373 32.000000 25 656.891339
0.490664 0.285368 1.396784 34.000000 23 656.891342
0.515929 0.300175 1.160715 34.000000 21 656.891344
0.533246 0.310247 0.978721 35.000000 19 656.891347
0.544772 0.316949 0.830963 34.000000 17 656.891350
0.208010 0.101769 3.832984 118.000000 30 656.891357
0.336134 0.174757 3.484772 9.000000 29 656.891360
0.439894 0.248589 1.981560 23.000000 26 656.891362
0.480128 0.278123 1.563106 34.000000 24 656.891365
0.502591 0.291363 1.264487 34.000000 22 656.891368
0.518105 0.300470 1.049839 34.000000 20 656.891370
0.528975 0.306771 0.884191 34.000000 18 656.891373
0.543558 0.315225 0.759475 35.000000 16 656.891375
0.557940 0.325520 0.714575 35.000000 15 656.891333
0.567524 0.331109 0.612003 33.000000 13 656.891336
0.568980 0.331825 0.516456 29.000000 11 656.891338
0.602077 0.351124 0.451246 16.000000 9 656.891341
0.589456 0.343626 0.363987 50.000000 7 656.891343
0.588871 0.343147 0.290148 48.000000 5 656.891346
0.611164 0.356137 0.225769 52.000000 3 656.891348
0.602273 0.350816 0.155401 45.000000 1 656.891351
0.555117 0.322706 0.652844 35.000000 14 656.891359
0.561363 0.326334 0.556346 34.000000 12 656.891361
0.560692 0.325813 0.466537 31.000000 10 656.891364
0.585656 0.340316 0.400586 39.000000 8 656.891366
0.596687 0.346586 0.329174 47.000000 6 656.891369
0.601224 0.349081 0.258394 59.000000 4 656.891371
0.603805 0.350439 0.189465 43.000000 2 656.891374
0.617731 0.358377 0.122484 48.000000 0 656.891377
0.040812 0.014743 3.419143 5.000000 31 656.891387
0.388741 0.212129 2.815801 10.000000 28 656.891390
0.426114 0.231916 2.355865 15.000000 27 656.891392
0.465698 0.265320 1.759601 32.000000 25 656.891395
0.491657 0.283653 1.396784 34.000000 23 656.891397
0.516974 0.298373 1.160715 34.000000 21 656.891400
0.531888 0.306977 0.974588 35.000000 19 656.891403
0.545875 0.315046 0.830963 34.000000 17 656.891405
0.208869 0.101329 3.842968 127.000000 30 656.891413
0.336712 0.173641 3.484772 9.000000 29 656.891415
0.440716 0.247129 1.981560 23.000000 26 656.891418
0.479552 0.275670 1.558413 34.000000 24 656.891421
0.501717 0.288521 1.259986 34.000000 22 656.891423
0.516890 0.297360 1.045573 34.000000 20 656.891426
0.530042 0.304923 0.884191 34.000000 18 656.891428
0.544600 0.313421 0.759475 35.000000 16 656.891431
0.559072 0.323571 0.714575 35.000000 15 656.891388
0.568677 0.329126 0.612003 34.000000 13 656.891391
0.566516 0.327743 0.513714 28.000000 11 656.891394
0.603299 0.349020 0.451246 16.000000 9 656.891396
0.590592 0.341669 0.363987 50.000000 7 656.891399
0.585852 0.338791 0.288739 45.000000 5 656.891401
0.608150 0.351543 0.224837 52.000000 3 656.891404
0.603494 0.348711 0.155401 39.000000 1 656.891406
0.556240 0.320766 0.652844 35.000000 14 656.891414
0.562499 0.324372 0.556346 34.000000 12 656.891417
0.558035 0.321798 0.464004 30.000000 10 656.891419
0.586782 0.338372 0.400586 40.000000 8 656.891422
0.597833 0.344605 0.329174 47.000000 6 656.891424
0.602378 0.347085 0.258394 55.000000 4 656.891427
0.604964 0.348435 0.189465 45.000000 2 656.891430
0.618916 0.356327 0.122484 48.000000 0 656.891432
0.040861 0.014608 3.419143 5.000000 31 656.891443
0.388758 0.210470 2.810862 10.000000 28 656.891445
0.426880 0.230502 2.355865 16.000000 27 656.891448
0.466575 0.263774 1.759601 32.000000 25 656.891450
0.492595 0.282022 1.396784 34.000000 23 656.891453
0.515882 0.295466 1.156326 34.000000 21 656.891456
0.532903 0.305211 0.974588 35.000000 19 656.891458
0.544135 0.311641 0.827126 34.000000 17 656.891461
0.209483 0.100724 3.847959 134.000000 30 656.891468
0.336840 0.172223 3.479801 9.000000 29 656.891471
0.440477 0.244978 1.976721 24.000000 26 656.891474
0.480511 0.273994 1.558413 34.000000 24 656.891476
0.502671 0.286856 1.259986 34.000000 22 656.891479
0.517873 0.295644 1.045573 34.000000 20 656.891481
0.531051 0.303163 0.884191 34.000000 18 656.891484
0.545691 0.311518 0.759475 35.000000 16 656.891486
0.557050 0.319939 0.711070 35.000000 15 656.891444
0.569765 0.327238 0.612003 34.000000 13 656.891447
0.567599 0.325863 0.513714 28.000000 11 656.891449
0.600611 0.344812 0.448928 16.000000 9 656.891452
0.591781 0.339605 0.363987 50.000000 7 656.891454
0.587031 0.336744 0.288739 45.000000 5 656.891457
0.609313 0.349525 0.224837 52.000000 3 656.891459
0.604647 0.346708 0.155401 41.000000 1 656.891462
0.557301 0.318920 0.652844 35.000000 14 656.891470
0.560063 0.320498 0.553403 34.000000 12 656.891472
0.559155 0.319848 0.464004 31.000000 10 656.891475
0.587959 0.336322 0.400586 39.000000 8 656.891477
0.599032 0.342517 0.329174 48.000000 6 656.891480
0.603586 0.344981 0.258394 53.000000 4 656.891482
0.606176 0.346321 0.189465 46.000000 2 656.891485
0.615818 0.351687 0.122283 50.000000 0 656.891488
0.040914 0.014458 3.419143 5.000000 31 656.891498
0.388157 0.208310 2.800983 10.000000 28 656.891501
0.427722 0.228936 2.355865 16.000000 27 656.891503
0.466235 0.261332 1.754830 32.000000 25 656.891506
0.491927 0.279250 1.392182 34.000000 23 656.891508
0.516961 0.293573 1.156326 34.000000 21 656.891511
0.534018 0.303256 0.974588 35.000000 19 656.891513
0.545273 0.309644 0.827126 34.000000 17 656.891516
0.209851 0.099955 3.847959 122.000000 30 656.891524
