# .PCD v.7 - Point Cloud Data file format
VERSION .7
FIELDS x y z normal_x normal_y normal_z
SIZE 4 4 4 4 2 4
TYPE F F F F U F
COUNT 1 1 1 1 1 1
WIDTH 925
HEIGHT 1
VIEWPOINT 0 0 0 1 0 0 0
POINTS 925
DATA ascii
1.241043 -0.439230 0.341414 35.000000 3 332.504612
1.243819 -0.440457 0.211177 31.000000 1 332.504614
1.168137 -0.414798 1.184820 40.000000 14 332.504622
1.183240 -0.420164 0.997820 44.000000 12 332.504625
1.196054 -0.424949 0.831206 42.000000 10 332.504627
1.219885 -0.433419 0.685921 49.000000 8 332.504630
1.228635 -0.436770 0.542723 51.000000 6 332.504632
1.236621 -0.439852 0.407279 39.000000 4 332.504635
1.236248 -0.439962 0.275002 30.000000 2 332.504637
1.251676 -0.445699 0.147273 39.000000 0 332.504640
0.056427 -0.034778 6.049043 89.000000 31 332.504651
0.837813 -0.323707 5.710207 11.000000 28 332.504653
0.890967 -0.345329 4.617460 9.000000 27 332.504656
0.998730 -0.364581 3.444020 21.000000 25 332.504658
1.045466 -0.375133 2.676286 32.000000 23 332.504661
1.094069 -0.392363 2.196439 37.000000 21 332.504663
1.126376 -0.403953 1.830108 39.000000 19 332.504666
1.145507 -0.410817 1.533124 39.000000 17 332.504669
0.328626 -0.145898 6.039276 89.000000 30 332.504676
0.605096 -0.250470 6.054992 90.000000 29 332.504679
0.951924 -0.354952 3.946277 14.000000 26 332.504681
1.026832 -0.370265 3.022556 30.000000 24 332.504684
1.075102 -0.387466 2.425702 36.000000 22 332.504687
1.100846 -0.396532 1.984079 37.000000 20 332.504689
1.128249 -0.406406 1.662143 38.000000 18 332.504692
1.146217 -0.412655 1.398953 39.000000 16 332.504694
1.162433 -0.415288 1.292825 39.000000 15 332.504652
1.179638 -0.421437 1.092083 42.000000 13 332.504654
1.199039 -0.428604 0.919451 40.000000 11 332.504657
1.206975 -0.431444 0.757226 44.000000 9 332.504660
1.218722 -0.435643 0.611227 44.000000 7 332.504662
1.228967 -0.439547 0.473344 39.000000 5 332.504665
1.239502 -0.443559 0.341414 35.000000 3 332.504667
1.242274 -0.444796 0.211177 32.000000 1 332.504670
1.166682 -0.418873 1.184820 40.000000 14 332.504678
1.181766 -0.424292 0.997820 42.000000 12 332.504680
1.198696 -0.430370 0.833738 44.000000 10 332.504683
1.218441 -0.437462 0.685921 49.000000 8 332.504685
1.231625 -0.442438 0.544366 49.000000 6 332.504688
1.235155 -0.443950 0.407279 39.000000 4 332.504690
1.239442 -0.445735 0.275692 30.000000 2 332.504693
1.254892 -0.451539 0.147474 39.000000 0 332.504696
0.056311 -0.034964 6.049043 89.000000 31 332.504706
0.836735 -0.326483 5.710207 11.000000 28 332.504709
0.891713 -0.349025 4.627251 8.000000 27 332.504711
0.998917 -0.368407 3.448791 21.000000 25 332.504714
1.044216 -0.378597 2.676286 32.000000 23 332.504716
1.095014 -0.396806 2.200827 37.000000 21 332.504719
1.125030 -0.407686 1.830108 39.000000 19 332.504722
1.144139 -0.414613 1.533124 39.000000 17 332.504724
0.328115 -0.147044 6.039276 89.000000 30 332.504732
0.604218 -0.252581 6.054992 90.000000 29 332.504734
0.951856 -0.358717 3.951116 14.000000 26 332.504737
1.027154 -0.374438 3.027249 30.000000 24 332.504740
1.073743 -0.391216 2.425702 36.000000 22 332.504742
1.101906 -0.401265 1.988345 37.000000 20 332.504745
1.126823 -0.410342 1.662143 38.000000 18 332.504747
1.147882 -0.418014 1.402629 39.000000 16 332.504750
1.164404 -0.420351 1.296329 39.000000 15 332.504707
1.181895 -0.426669 1.095221 42.000000 13 332.504710
1.197611 -0.432578 0.919451 42.000000 11 332.504713
1.205538 -0.435444 0.757226 42.000000 9 332.504715
1.217193 -0.439894 0.611227 46.000000 7 332.504718
1.227426 -0.443835 0.473344 40.000000 5 332.504720
1.237947 -0.447883 0.341414 35.000000 3 332.504723
1.240714 -0.449129 0.211177 32.000000 1 332.504725
1.168723 -0.424217 1.188145 40.000000 14 332.504733
1.184078 -0.429794 1.000763 42.000000 12 332.504736
1.197110 -0.434761 0.833738 45.000000 10 332.504738
1.216829 -0.441925 0.685921 49.000000 8 332.504741
1.229995 -0.446950 0.544366 49.000000 6 332.504743
1.238088 -0.450135 0.408451 39.000000 4 332.504746
1.237800 -0.450275 0.275692 30.000000 2 332.504748
1.253308 -0.455916 0.147474 39.000000 0 332.504751
0.056183 -0.035171 6.049043 89.000000 31 332.504762
0.836256 -0.329833 5.715146 11.000000 28 332.504764
0.890428 -0.352291 4.627251 8.000000 27 332.504767
0.998959 -0.372588 3.453563 21.000000 25 332.504769
1.044655 -0.383095 2.680889 30.000000 23 332.504772
1.095802 -0.401641 2.205216 37.000000 21 332.504774
1.126170 -0.412775 1.834242 39.000000 19 332.504777
1.145621 -0.419907 1.536961 39.000000 17 332.504780
0.327574 -0.148246 6.039276 89.000000 30 332.504787
0.603288 -0.254794 6.054992 90.000000 29 332.504790
0.951710 -0.362651 3.955956 14.000000 26 332.504792
1.027394 -0.378797 3.031942 30.000000 24 332.504795
1.074415 -0.395714 2.430203 36.000000 22 332.504798
1.100499 -0.405109 1.988345 37.000000 20 332.504800
1.128212 -0.415314 1.666132 38.000000 18 332.504803
1.146416 -0.422018 1.402629 39.000000 16 332.504805
1.162855 -0.424616 1.296329 39.000000 15 332.504763
1.180324 -0.430998 1.095221 42.000000 13 332.504766
1.196018 -0.436965 0.919451 40.000000 11 332.504768
1.203934 -0.439860 0.757226 42.000000 9 332.504771
1.215573 -0.444353 0.611227 46.000000 7 332.504773
1.230296 -0.449978 0.474753 40.000000 5 332.504776
1.236376 -0.452202 0.341414 35.000000 3 332.504778
1.243815 -0.455169 0.211623 31.000000 1 332.504781
1.167235 -0.428295 1.188145 40.000000 14 332.504789
1.182570 -0.433924 1.000763 42.000000 12 332.504791
1.199632 -0.440423 0.836271 44.000000 10 332.504794
1.215279 -0.446170 0.685921 49.000000 8 332.504796
1.228427 -0.451240 0.544366 49.000000 6 332.504799
1.236509 -0.454454 0.408451 39.000000 4 332.504801
1.240869 -0.456302 0.276381 31.000000 2 332.504804
1.251629 -0.460507 0.147474 39.000000 0 332.504807
0.056095 -0.035392 6.054043 89.000000 31 332.504817
0.835821 -0.333038 5.720085 11.000000 28 332.504820
0.888247 -0.355019 4.622355 7.000000 27 332.504822
0.999050 -0.376600 3.458335 21.000000 25 332.504825
1.045143 -0.387418 2.685491 30.000000 23 332.504827
1.094393 -0.405464 2.205216 37.000000 21 332.504830
1.124723 -0.416703 1.834242 39.000000 19 332.504833
1.147155 -0.425017 1.540798 39.000000 17 332.504835
0.327080 -0.149332 6.039276 88.000000 30 332.504843
0.602440 -0.256793 6.054992 90.000000 29 332.504845
0.951676 -0.366257 3.960795 14.000000 26 332.504848
1.026132 -0.382202 3.031942 31.000000 24 332.504851
1.073027 -0.399462 2.430203 36.000000 22 332.504853
1.101522 -0.409858 1.992611 37.000000 20 332.504856
1.126756 -0.419250 1.666132 38.000000 18 332.504858
1.148188 -0.426999 1.406304 39.000000 16 332.504861
1.164712 -0.429908 1.299834 39.000000 15 332.504818
1.182464 -0.436463 1.098359 40.000000 13 332.504821
1.198407 -0.442586 0.922193 40.000000 11 332.504824
1.206547 -0.445595 0.759544 42.000000 9 332.504826
1.218441 -0.449987 0.613100 44.000000 7 332.504829
1.228797 -0.454056 0.474753 39.000000 5 332.504831
1.239397 -0.458218 0.342347 35.000000 3 332.504834
1.242219 -0.459508 0.211623 31.000000 1 332.504836
1.169234 -0.433665 1.191470 40.000000 14 332.504844
1.181048 -0.438050 1.000763 44.000000 12 332.504847
1.198165 -0.444398 0.836271 44.000000 10 332.504849
1.218048 -0.451776 0.688019 49.000000 8 332.504852
1.231351 -0.456954 0.546008 49.000000 6 332.504854
1.234995 -0.458552 0.408451 39.000000 4 332.504857
1.239349 -0.460415 0.276381 31.000000 2 332.504860
1.254778 -0.466396 0.147676 39.000000 0 332.504862
0.055977 -0.035578 6.054043 89.000000 31 332.504873
0.836153 -0.336389 5.729964 11.000000 28 332.504875
0.890841 -0.359488 4.641936 5.000000 27 332.504878
0.997796 -0.379911 3.458335 21.000000 25 332.504880
1.045683 -0.391567 2.690094 32.000000 23 332.504883
1.095286 -0.409930 2.209605 36.000000 21 332.504886
1.125970 -0.421417 1.838374 39.000000 19 332.504888
1.145739 -0.428819 1.540798 39.000000 17 332.504891
0.326557 -0.150472 6.039276 88.000000 30 332.504898
0.601540 -0.258894 6.054992 90.000000 29 332.504901
0.952736 -0.370489 3.970474 14.000000 26 332.504904
1.026407 -0.386390 3.036634 31.000000 24 332.504906
1.073735 -0.403785 2.434704 36.000000 22 332.504909
1.100157 -0.413508 1.992611 37.000000 20 332.504911
1.128181 -0.424044 1.670122 38.000000 18 332.504914
1.146691 -0.431004 1.406304 39.000000 16 332.504916
1.163280 -0.433767 1.299834 39.000000 15 332.504874
1.181010 -0.440382 1.098359 40.000000 13 332.504877
1.196933 -0.446557 0.922193 42.000000 11 332.504879
1.205063 -0.449593 0.759544 42.000000 9 332.504882
1.216863 -0.454238 0.613100 44.000000 7 332.504884
1.231699 -0.460021 0.476162 40.000000 5 332.504887
1.237871 -0.462326 0.342347 35.000000 3 332.504889
1.240688 -0.463625 0.211623 32.000000 1 332.504892
1.167790 -0.437540 1.191470 40.000000 14 332.504900
1.183374 -0.443382 1.003707 42.000000 12 332.504902
1.200644 -0.450091 0.838803 44.000000 10 332.504905
1.216464 -0.456025 0.688019 49.000000 8 332.504907
1.229749 -0.461250 0.546008 49.000000 6 332.504910
1.233387 -0.462860 0.408451 39.000000 4 332.504912
1.237734 -0.464738 0.276381 31.000000 2 332.504915
1.253142 -0.470773 0.147676 39.000000 0 332.504918
0.055853 -0.035773 6.054043 89.000000 31 332.504929
0.836414 -0.339891 5.739842 11.000000 28 332.504932
0.997857 -0.383928 3.463106 21.000000 25 332.504937
1.044309 -0.395215 2.690094 32.000000 23 332.504939
1.093849 -0.413751 2.209605 36.000000 21 332.504942
1.124492 -0.425345 1.838374 38.000000 19 332.504944
1.147234 -0.433950 1.544635 38.000000 17 332.504947
0.326030 -0.151611 6.039276 88.000000 30 332.504955
0.600632 -0.260993 6.054992 90.000000 29 332.504957
0.953779 -0.374733 3.980152 15.000000 26 332.504960
1.025052 -0.389970 3.036634 31.000000 24 332.504962
1.074354 -0.408304 2.439204 36.000000 22 332.504965
1.101145 -0.418272 1.996877 37.000000 20 332.504967
1.126694 -0.427980 1.670122 38.000000 18 332.504970
1.148348 -0.436208 1.409979 39.000000 16 332.504973
1.165095 -0.439083 1.303338 39.000000 15 332.504930
1.183109 -0.445875 1.101497 40.000000 13 332.504933
1.195367 -0.450733 0.922193 40.000000 11 332.504935
1.207631 -0.455360 0.761862 44.000000 9 332.504938
1.215270 -0.458483 0.613100 44.000000 7 332.504941
1.230085 -0.464317 0.476162 39.000000 5 332.504943
1.236249 -0.466644 0.342347 35.000000 3 332.504946
1.243721 -0.469712 0.212069 32.000000 1 332.504948
1.169748 -0.442936 1.194795 40.000000 14 332.504956
1.181819 -0.447510 1.003707 42.000000 12 332.504959
1.199065 -0.454280 0.838803 44.000000 10 332.504961
1.214864 -0.460268 0.688019 50.000000 8 332.504964
1.228131 -0.465540 0.546008 51.000000 6 332.504966
1.231764 -0.467163 0.408451 39.000000 4 332.504969
1.236105 -0.469056 0.276381 31.000000 2 332.504971
1.251491 -0.475144 0.147676 39.000000 0 332.504974
0.055728 -0.035968 6.054043 88.000000 31 332.504985
0.837378 -0.343694 5.754660 11.000000 28 332.504987
0.997903 -0.387950 3.467878 21.000000 25 332.504992
1.044748 -0.399556 2.694696 32.000000 23 332.504995
1.094636 -0.418422 2.213993 37.000000 21 332.504997
1.125629 -0.430272 1.842507 38.000000 19 332.505000
1.145712 -0.437952 1.544635 38.000000 17 332.505002
0.325498 -0.152748 6.039276 88.000000 30 332.505010
0.599718 -0.263088 6.054992 90.000000 29 332.505013
0.955972 -0.379453 3.994669 15.000000 26 332.505015
1.025295 -0.394165 3.041327 30.000000 24 332.505018
1.072922 -0.412052 2.439204 35.000000 22 332.505020
1.102113 -0.423048 2.001143 37.000000 20 332.505023
1.128007 -0.432990 1.674111 37.000000 18 332.505026
1.146819 -0.440214 1.409979 39.000000 16 332.505028
1.163556 -0.443147 1.303338 39.000000 15 332.504986
1.181545 -0.450002 1.101497 40.000000 13 332.504988
1.197694 -0.456392 0.924934 40.000000 11 332.504991
1.206035 -0.459573 0.761862 44.000000 9 332.504993
1.217994 -0.464373 0.614973 44.000000 7 332.504996
1.228457 -0.468608 0.476162 39.000000 5 332.504999
1.234613 -0.470956 0.342347 35.000000 3 332.505001
1.242074 -0.474051 0.212069 32.000000 1 332.505004
1.168194 -0.447016 1.194795 39.000000 14 332.505011
1.184025 -0.453077 1.006650 42.000000 12 332.505014
1.197472 -0.458462 0.838803 44.000000 10 332.505017
1.217489 -0.466129 0.690117 50.000000 8 332.505019
1.230909 -0.471513 0.547651 51.000000 6 332.505022
1.230126 -0.471459 0.408451 39.000000 4 332.505024
1.239084 -0.475141 0.277071 31.000000 2 332.505027
1.254490 -0.481299 0.147877 39.000000 0 332.505029
0.055602 -0.036162 6.054043 88.000000 31 332.505040
0.838326 -0.347509 5.769478 11.000000 28 332.505043
0.999323 -0.392523 3.477422 22.000000 25 332.505048
1.045169 -0.403904 2.699299 32.000000 23 332.505050
1.093169 -0.422241 2.213993 37.000000 21 332.505053
1.124120 -0.434199 1.842507 38.000000 19 332.505055
1.147167 -0.443104 1.548472 39.000000 17 332.505058
0.324963 -0.153884 6.039276 89.000000 30 332.505066
0.598796 -0.265179 6.054992 90.000000 29 332.505068
0.956976 -0.383724 4.004348 14.000000 26 332.505071
1.025522 -0.398367 3.046020 30.000000 24 332.505073
1.073508 -0.416582 2.443705 35.000000 22 332.505076
1.103061 -0.427835 2.005409 37.000000 20 332.505079
1.129298 -0.438015 1.678101 38.000000 18 332.505081
1.148436 -0.445441 1.413654 39.000000 16 332.505084
1.162002 -0.447206 1.303338 39.000000 15 332.505041
1.183600 -0.455521 1.104634 40.000000 13 332.505044
1.196093 -0.460569 0.924934 40.000000 11 332.505046
1.204423 -0.463780 0.761862 44.000000 9 332.505049
1.216366 -0.468622 0.614973 44.000000 7 332.505052
1.231290 -0.474619 0.477571 39.000000 5 332.505054
1.237545 -0.477030 0.343280 35.000000 3 332.505057
1.245058 -0.480176 0.212516 32.000000 1 332.505059
1.170110 -0.452438 1.198120 39.000000 14 332.505067
1.182436 -0.457207 1.006650 42.000000 12 332.505070
1.199885 -0.464195 0.841336 44.000000 10 332.505072
1.215854 -0.470376 0.690117 50.000000 8 332.505075
1.229255 -0.475807 0.547651 51.000000 6 332.505077
1.233005 -0.477506 0.409623 39.000000 4 332.505080
1.237417 -0.479463 0.277071 31.000000 2 332.505082
1.252802 -0.485675 0.147877 39.000000 0 332.505085
0.055475 -0.036356 6.054043 88.000000 31 332.505096
0.837825 -0.350733 5.774417 11.000000 28 332.505098
0.999335 -0.396560 3.482193 21.000000 25 332.505103
1.045573 -0.408261 2.703901 32.000000 23 332.505106
1.093920 -0.426925 2.218382 37.000000 21 332.505108
1.125219 -0.439143 1.846640 38.000000 19 332.505111
1.145613 -0.447106 1.548472 39.000000 17 332.505113
0.324424 -0.155017 6.039276 89.000000 30 332.505121
0.597866 -0.267268 6.054992 90.000000 29 332.505124
0.956797 -0.387534 4.009187 14.000000 26 332.505126
1.025731 -0.402575 3.050713 30.000000 24 332.505129
1.072047 -0.420327 2.443705 35.000000 22 332.505131
1.101561 -0.431683 2.005409 37.000000 20 332.505134
1.127763 -0.441954 1.678101 38.000000 18 332.505137
1.146874 -0.449447 1.413654 39.000000 16 332.505139
1.163757 -0.452552 1.306843 39.000000 15 332.505097
1.182003 -0.459650 1.104634 40.000000 13 332.505099
1.194479 -0.464742 0.924934 40.000000 11 332.505102
1.206926 -0.469587 0.764180 44.000000 9 332.505105
1.214723 -0.472865 0.614973 44.000000 7 332.505107
1.229626 -0.478914 0.477571 39.000000 5 332.505110
1.235872 -0.481347 0.343280 35.000000 3 332.505112
1.243374 -0.484519 0.212516 32.000000 1 332.505115
1.168523 -0.456520 1.198120 39.000000 14 332.505123
1.180833 -0.461332 1.006650 42.000000 12 332.505125
1.198258 -0.468381 0.841336 42.000000 10 332.505128
1.214205 -0.474617 0.690117 49.000000 8 332.505130
1.227587 -0.480095 0.547651 48.000000 6 332.505133
1.231331 -0.481807 0.409623 39.000000 4 332.505135
1.240348 -0.485585 0.277761 31.000000 2 332.505138
1.255751 -0.491868 0.148079 39.000000 0 332.505140
0.055348 -0.036549 6.054043 88.000000 31 332.505151
0.836595 -0.353656 5.774417 11.000000 28 332.505154
0.730720 -0.309734 3.839119 3.000000 27 332.505156
0.999331 -0.400602 3.486965 21.000000 25 332.505159
1.044142 -0.411908 2.703901 32.000000 23 332.505161
1.092423 -0.430741 2.218382 37.000000 21 332.505164
1.123680 -0.443068 1.846640 38.000000 19 332.505166
1.147028 -0.452278 1.552309 39.000000 17 332.505169
0.323881 -0.156149 6.039276 89.000000 30 332.505177
0.596930 -0.269353 6.054992 90.000000 29 332.505179
0.957766 -0.391825 4.018865 14.000000 26 332.505182
1.025924 -0.406789 3.055406 30.000000 24 332.505184
1.072598 -0.424869 2.448206 35.000000 22 332.505187
1.102472 -0.436486 2.009674 37.000000 20 332.505190
1.129015 -0.446998 1.682090 38.000000 18 332.505192
1.148450 -0.454695 1.417329 39.000000 16 332.505195
1.162171 -0.456612 1.306843 39.000000 15 332.505152
1.184014 -0.465197 1.107772 40.000000 13 332.505155
1.196741 -0.470438 0.927676 40.000000 11 332.505157
1.205279 -0.473798 0.764180 44.000000 9 332.505160
1.217379 -0.478799 0.616846 44.000000 7 332.505163
1.227947 -0.483203 0.477571 39.000000 5 332.505165
1.238756 -0.487457 0.344212 35.000000 3 332.505168
1.241675 -0.488856 0.212516 30.000000 1 332.505170
1.170396 -0.461967 1.201445 39.000000 14 332.505178
1.182975 -0.466935 1.009593 40.000000 12 332.505181
1.196616 -0.472561 0.841336 42.000000 10 332.505183
1.216762 -0.480520 0.692215 49.000000 8 332.505186
1.225904 -0.484377 0.547651 49.000000 6 332.505188
1.234162 -0.487889 0.410796 39.000000 4 332.505191
1.238645 -0.489911 0.277761 31.000000 2 332.505193
1.258671 -0.498086 0.148280 39.000000 0 332.505196
0.055220 -0.036742 6.054043 82.000000 31 332.505207
0.836070 -0.356879 5.779356 11.000000 28 332.505209
0.724019 -0.309876 3.809747 3.000000 27 332.505212
0.999310 -0.404649 3.491737 21.000000 25 332.505214
1.044512 -0.416273 2.708504 31.000000 23 332.505217
1.093138 -0.435438 2.222771 36.000000 21 332.505219
1.124740 -0.448030 1.850773 38.000000 19 332.505222
1.148421 -0.457465 1.556146 39.000000 17 332.505225
0.323334 -0.157278 6.039276 88.000000 30 332.505232
0.595986 -0.271435 6.054992 90.000000 29 332.505235
0.957555 -0.395646 4.023705 14.000000 26 332.505237
1.024498 -0.410367 3.055406 30.000000 24 332.505240
1.073130 -0.429419 2.452707 35.000000 22 332.505243
1.103364 -0.441300 2.013940 37.000000 20 332.505245
1.130247 -0.452055 1.686080 37.000000 18 332.505248
1.146856 -0.458701 1.417329 39.000000 16 332.505250
1.163884 -0.461981 1.310348 39.000000 15 332.505208
1.182383 -0.469327 1.107772 40.000000 13 332.505210
1.195091 -0.474613 0.927676 40.000000 11 332.505213
1.203618 -0.478002 0.764180 44.000000 9 332.505216
1.215700 -0.483046 0.616846 44.000000 7 332.505218
1.230711 -0.489259 0.478980 40.000000 5 332.505221
1.237046 -0.491778 0.344212 35.000000 3 332.505223
1.244589 -0.495028 0.212962 30.000000 1 332.505226
1.168777 -0.466050 1.201445 39.000000 14 332.505234
1.181338 -0.471062 1.009593 40.000000 12 332.505236
1.194959 -0.476735 0.841336 42.000000 10 332.505239
1.215078 -0.484764 0.692215 49.000000 8 332.505241
1.228591 -0.490404 0.549294 49.000000 6 332.505244
1.232451 -0.492194 0.410796 39.000000 4 332.505246
1.236928 -0.494232 0.277761 31.000000 2 332.505249
1.256925 -0.502477 0.148280 39.000000 0 332.505251
0.055091 -0.036935 6.054043 82.000000 31 332.505262
0.834819 -0.359796 5.779356 11.000000 28 332.505265
0.730409 -0.315636 3.848909 4.000000 27 332.505267
0.999274 -0.408700 3.496508 21.000000 25 332.505270
1.043053 -0.419917 2.708504 31.000000 23 332.505272
1.091612 -0.439251 2.222771 36.000000 21 332.505275
1.123170 -0.451953 1.850773 38.000000 19 332.505277
1.146817 -0.461471 1.556146 38.000000 17 332.505280
0.322783 -0.158406 6.039276 88.000000 30 332.505288
0.595035 -0.273514 6.054992 90.000000 29 332.505290
0.957329 -0.399471 4.028544 14.000000 26 332.505293
1.024659 -0.414588 3.060098 30.000000 24 332.505295
1.071625 -0.433163 2.452707 35.000000 22 332.505298
1.101816 -0.445149 2.013940 38.000000 20 332.505301
1.128662 -0.455998 1.686080 38.000000 18 332.505303
1.148391 -0.463972 1.421004 39.000000 16 332.505306
1.162265 -0.466041 1.310348 39.000000 15 332.505263
1.184351 -0.474900 1.110910 40.000000 13 332.505266
1.197308 -0.480338 0.930417 40.000000 11 332.505269
1.206054 -0.483850 0.766498 44.000000 9 332.505271
1.218309 -0.489013 0.618719 44.000000 7 332.505274
1.228995 -0.493552 0.478980 40.000000 5 332.505276
1.239881 -0.497923 0.345145 36.000000 3 332.505279
1.242854 -0.499369 0.212962 32.000000 1 332.505281
1.170606 -0.471522 1.204769 39.000000 14 332.505289
1.179687 -0.475182 1.009593 40.000000 12 332.505292
1.197286 -0.482514 0.843868 42.000000 10 332.505294
1.217587 -0.490699 0.694313 49.000000 8 332.505297
1.226872 -0.494690 0.549294 49.000000 6 332.505299
1.235233 -0.498312 0.411968 39.000000 4 332.505302
1.235195 -0.498547 0.277761 31.000000 2 332.505304
1.259796 -0.508732 0.148482 39.000000 0 332.505307
0.054962 -0.037127 6.054043 89.000000 31 332.505318
0.833558 -0.362707 5.779356 10.000000 28 332.505320
0.733035 -0.319815 3.868490 3.000000 27 332.505323
0.999222 -0.412756 3.501280 20.000000 25 332.505325
1.041581 -0.423555 2.708504 31.000000 23 332.505328
1.092291 -0.443961 2.227159 36.000000 21 332.505330
1.124192 -0.456930 1.854906 38.000000 19 332.505333
1.148169 -0.466679 1.559983 39.000000 17 332.505336
0.322256 -0.159475 6.039276 88.000000 30 332.505343
0.594125 -0.275486 6.054992 90.000000 29 332.505346
0.957158 -0.403132 4.033383 14.000000 26 332.505348
1.023278 -0.417984 3.060098 30.000000 24 332.505351
1.072122 -0.437724 2.457208 35.000000 22 332.505354
1.102670 -0.449978 2.018206 38.000000 20 332.505356
1.129854 -0.461074 1.690069 38.000000 18 332.505359
1.146846 -0.467777 1.421004 39.000000 16 332.505361
1.163936 -0.471434 1.313852 39.000000 15 332.505319
1.182686 -0.479032 1.110910 40.000000 13 332.505321
1.195624 -0.484515 0.930417 40.000000 11 332.505324
1.204357 -0.488057 0.766498 44.000000 9 332.505327
1.216681 -0.493051 0.618719 44.000000 7 332.505329
1.231798 -0.499427 0.480390 40.000000 5 332.505332
1.238135 -0.502248 0.345145 36.000000 3 332.505334
1.245717 -0.505577 0.213408 32.000000 1 332.505337
1.168954 -0.475605 1.204769 39.000000 14 332.505345
1.181765 -0.480821 1.012536 40.000000 12 332.505347
1.195680 -0.486482 0.843868 42.000000 10 332.505350
1.215954 -0.494734 0.694313 49.000000 8 332.505352
1.229599 -0.500536 0.550936 49.000000 6 332.505355
1.233574 -0.502405 0.411968 39.000000 4 332.505357
1.238121 -0.504509 0.278451 31.000000 2 332.505360
1.258102 -0.512907 0.148482 39.000000 0 332.505363
0.054839 -0.037309 6.054043 90.000000 31 332.505373
0.833062 -0.365782 5.784295 10.000000 28 332.505376
0.730107 -0.321422 3.858700 3.000000 27 332.505378
0.997848 -0.416067 3.501280 21.000000 25 332.505381
1.041978 -0.427749 2.713106 31.000000 23 332.505383
1.090813 -0.447581 2.227159 37.000000 21 332.505386
1.122671 -0.460656 1.854906 38.000000 19 332.505389
1.146615 -0.470484 1.559983 39.000000 17 332.505391
0.321697 -0.160599 6.039276 88.000000 30 332.505399
0.593159 -0.277558 6.054992 90.000000 29 332.505401
0.956902 -0.406963 4.038222 14.000000 26 332.505404
1.023408 -0.422211 3.064791 30.000000 24 332.505407
1.072601 -0.442294 2.461709 35.000000 22 332.505409
1.101093 -0.453824 2.018206 37.000000 20 332.505412
1.128237 -0.465015 1.690069 38.000000 18 332.505414
1.148258 -0.473270 1.424680 39.000000 16 332.505417
1.162367 -0.475292 1.313852 39.000000 15 332.505374
1.184694 -0.484424 1.114048 39.000000 13 332.505377
1.194010 -0.488477 0.930417 40.000000 11 332.505380
1.206833 -0.493725 0.768816 44.000000 9 332.505382
1.219242 -0.499051 0.620592 44.000000 7 332.505385
1.230047 -0.503724 0.480390 40.000000 5 332.505387
1.240920 -0.508430 0.346077 36.000000 3 332.505390
1.243945 -0.509923 0.213408 32.000000 1 332.505392
1.167286 -0.479683 1.204769 39.000000 14 332.505400
1.180079 -0.484943 1.012536 40.000000 12 332.505403
1.197876 -0.492501 0.846401 42.000000 10 332.505405
1.214132 -0.499187 0.694313 50.000000 8 332.505408
1.227756 -0.505039 0.550936 49.000000 6 332.505410
1.236219 -0.508773 0.413140 40.000000 4 332.505413
1.236263 -0.509043 0.278451 31.000000 2 332.505415
1.256304 -0.517295 0.148482 39.000000 0 332.505418
0.054702 -0.037510 6.054043 88.000000 31 332.505429
0.833136 -0.369464 5.794174 11.000000 28 332.505431
0.727064 -0.323268 3.848909 3.000000 27 332.505434
0.997692 -0.420302 3.506052 21.000000 25 332.505436
1.040403 -0.431565 2.713106 31.000000 23 332.505439
1.091378 -0.452493 2.231548 36.000000 21 332.505441
1.123574 -0.465845 1.859039 38.000000 19 332.505444
1.147844 -0.475911 1.563820 39.000000 17 332.505447
0.321135 -0.161721 6.039276 88.000000 30 332.505454
0.592187 -0.279627 6.054992 90.000000 29 332.505457
0.955476 -0.410301 4.038222 14.000000 26 332.505459
1.023521 -0.426445 3.069484 30.000000 24 332.505462
1.071051 -0.446035 2.461709 35.000000 22 332.505465
1.101910 -0.458667 2.022472 37.000000 20 332.505467
1.129390 -0.470108 1.694059 38.000000 18 332.505470
1.146683 -0.477075 1.424680 39.000000 16 332.505472
1.163913 -0.480911 1.317357 39.000000 15 332.505430
1.182911 -0.488763 1.114048 39.000000 13 332.505433
1.196077 -0.494448 0.933159 40.000000 11 332.505435
1.205015 -0.498145 0.768816 44.000000 9 332.505438
1.217493 -0.503304 0.620592 42.000000 7 332.505440
1.232714 -0.509848 0.481799 40.000000 5 332.505443
1.239138 -0.512758 0.346077 36.000000 3 332.505445
1.242157 -0.514262 0.213408 32.000000 1 332.505448
1.169054 -0.485186 1.208094 39.000000 14 332.505456
1.182112 -0.490609 1.015479 40.000000 12 332.505458
1.196236 -0.496470 0.846401 40.000000 10 332.505461
1.216662 -0.504950 0.696411 50.000000 8 332.505463
1.230436 -0.510919 0.552579 49.000000 6 332.505466
1.234525 -0.512870 0.413140 40.000000 4 332.505468
1.234568 -0.513140 0.278451 31.000000 2 332.505471
1.254491 -0.521678 0.148482 39.000000 0 332.505474
0.054577 -0.037691 6.054043 88.000000 31 332.505484
0.832616 -0.372542 5.799113 11.000000 28 332.505487
0.725059 -0.325260 3.844014 4.000000 27 332.505489
0.997667 -0.424192 3.510824 21.000000 25 332.505492
1.040768 -0.435767 2.717709 31.000000 23 332.505494
1.092082 -0.457035 2.235937 36.000000 21 332.505497
1.122023 -0.469569 1.859039 38.000000 19 332.505500
1.149217 -0.480953 1.567657 38.000000 17 332.505502
0.320568 -0.162841 6.039276 88.000000 30 332.505510
0.591207 -0.281692 6.054992 90.000000 29 332.505512
0.955192 -0.414134 4.043061 14.000000 26 332.505515
1.022026 -0.430015 3.069484 30.000000 24 332.505518
1.071573 -0.450428 2.466209 35.000000 22 332.505520
1.100383 -0.462318 2.022472 37.000000 20 332.505523
1.130603 -0.475019 1.698048 38.000000 18 332.505525
1.148136 -0.482388 1.428355 39.000000 16 332.505528
1.162311 -0.484768 1.317357 39.000000 15 332.505485
1.184876 -0.494182 1.117185 40.000000 13 332.505488
1.194430 -0.498411 0.933159 40.000000 11 332.505491
1.203356 -0.502139 0.768816 42.000000 9 332.505493
1.220007 -0.509337 0.622465 42.000000 7 332.505496
1.230927 -0.514148 0.481799 40.000000 5 332.505498
1.241963 -0.518758 0.347010 36.000000 3 332.505501
1.245040 -0.520298 0.213854 32.000000 1 332.505503
1.167439 -0.489060 1.208094 39.000000 14 332.505511
1.180479 -0.494526 1.015479 40.000000 12 332.505514
1.198472 -0.502309 0.848933 40.000000 10 332.505516
1.214892 -0.509194 0.696411 49.000000 8 332.505519
1.228645 -0.515211 0.552579 49.000000 6 332.505521
1.232727 -0.517176 0.413140 39.000000 4 332.505524
1.237336 -0.519363 0.279141 31.000000 2 332.505527
1.252662 -0.526053 0.148482 39.000000 0 332.505529
0.054411 -0.037854 6.049043 88.000000 31 332.505540
0.832018 -0.375766 5.804052 11.000000 28 332.505542
0.722992 -0.327368 3.839119 3.000000 27 332.505545
0.997553 -0.428262 3.515595 21.000000 25 332.505547
1.041040 -0.440159 2.722311 31.000000 23 332.505550
1.092687 -0.461777 2.240325 36.000000 21 332.505553
1.122969 -0.474578 1.863172 38.000000 19 332.505555
1.147531 -0.484961 1.567657 38.000000 17 332.505558
0.319998 -0.163959 6.039276 88.000000 30 332.505565
0.590220 -0.283754 6.054992 90.000000 29 332.505568
0.953740 -0.417466 4.043061 14.000000 26 332.505571
1.022107 -0.434255 3.074177 30.000000 24 332.505573
1.069995 -0.454166 2.466209 35.000000 22 332.505576
1.101163 -0.467175 2.026738 37.000000 20 332.505578
1.128938 -0.478962 1.698048 38.000000 18 332.505581
1.146445 -0.486393 1.428355 39.000000 16 332.505583
1.163899 -0.490206 1.320861 39.000000 15 332.505541
1.183144 -0.498315 1.117185 39.000000 13 332.505544
1.196536 -0.504201 0.935900 40.000000 11 332.505546
1.205679 -0.508056 0.771134 42.000000 9 332.505549
1.218221 -0.513592 0.622465 42.000000 7 332.505551
1.229125 -0.518442 0.481799 40.000000 5 332.505554
1.240145 -0.523090 0.347010 36.000000 3 332.505556
1.243216 -0.524641 0.213854 32.000000 1 332.505559
1.165724 -0.493132 1.208094 39.000000 14 332.505567
1.182468 -0.500218 1.018422 40.000000 12 332.505569
1.196711 -0.506490 0.848933 40.000000 10 332.505572
1.217287 -0.515201 0.698509 49.000000 8 332.505574
1.226839 -0.519496 0.552579 49.000000 6 332.505577
1.235390 -0.523372 0.414313 40.000000 4 332.505579
1.235516 -0.523679 0.279141 31.000000 2 332.505582
1.255418 -0.532373 0.148683 39.000000 0 332.505585
0.054278 -0.038044 6.049043 88.000000 31 332.505595
0.831408 -0.378991 5.808992 10.000000 28 332.505598
0.720919 -0.329466 3.834224 3.000000 27 332.505600
0.997422 -0.432335 3.520367 20.000000 25 332.505603
1.041294 -0.444557 2.726914 31.000000 23 332.505605
1.093272 -0.466529 2.244714 36.000000 21 332.505608
1.121306 -0.478495 1.863172 38.000000 19 332.505610
1.148780 -0.490222 1.571494 38.000000 17 332.505613
0.319424 -0.165075 6.039276 88.000000 30 332.505621
0.589226 -0.285813 6.054992 90.000000 29 332.505623
0.953428 -0.421301 4.047901 14.000000 26 332.505626
1.022171 -0.438500 3.078869 30.000000 24 332.505628
1.070404 -0.458756 2.470710 35.000000 22 332.505631
1.101923 -0.472043 2.031004 38.000000 20 332.505633
1.130030 -0.484087 1.702038 38.000000 18 332.505636
1.147856 -0.491726 1.432030 39.000000 16 332.505639
1.162181 -0.494266 1.320861 39.000000 15 332.505596
1.181398 -0.502442 1.117185 39.000000 13 332.505599
1.194769 -0.508375 0.935900 40.000000 11 332.505601
1.203898 -0.512262 0.771134 42.000000 9 332.505604
1.216421 -0.517841 0.622465 42.000000 7 332.505607
1.231721 -0.524609 0.483208 40.000000 5 332.505609
1.242831 -0.529341 0.347943 37.000000 3 332.505612
1.241377 -0.528978 0.213854 32.000000 1 332.505614
1.167430 -0.498665 1.211419 39.000000 14 332.505622
1.180715 -0.504343 1.018422 40.000000 12 332.505625
1.198900 -0.512358 0.851465 40.000000 10 332.505627
1.215481 -0.519447 0.698509 50.000000 8 332.505630
1.225018 -0.523776 0.552579 49.000000 6 332.505632
1.233556 -0.527681 0.414313 40.000000 4 332.505635
1.238233 -0.529937 0.279830 31.000000 2 332.505637
1.253552 -0.536752 0.148683 39.000000 0 332.505640
0.054179 -0.038260 6.054043 89.000000 31 332.505651
0.830786 -0.382216 5.813931 10.000000 28 332.505653
0.719764 -0.331981 3.834224 3.000000 27 332.505656
0.997275 -0.436413 3.525139 20.000000 25 332.505658
1.041530 -0.448962 2.731516 30.000000 23 332.505661
1.091637 -0.470342 2.244714 36.000000 21 332.505663
1.122213 -0.483520 1.867305 38.000000 19 332.505666
1.147062 -0.494229 1.571494 38.000000 17 332.505668
0.318846 -0.166189 6.039276 88.000000 30 332.505676
0.588225 -0.287868 6.054992 90.000000 29 332.505679
0.953100 -0.425139 4.052740 14.000000 26 332.505681
1.022218 -0.442752 3.083562 30.000000 24 332.505684
1.070795 -0.463355 2.475211 35.000000 22 332.505686
1.102662 -0.476922 2.035270 38.000000 20 332.505689
1.128333 -0.488028 1.702038 37.000000 18 332.505692
1.146133 -0.495730 1.432030 39.000000 16 332.505694
1.163725 -0.499727 1.324366 39.000000 15 332.505652
1.183213 -0.508098 1.120323 39.000000 13 332.505654
1.192987 -0.512542 0.935900 40.000000 11 332.505657
1.206173 -0.518210 0.773452 40.000000 9 332.505659
1.218865 -0.523915 0.624338 42.000000 7 332.505662
1.229882 -0.528905 0.483208 40.000000 5 332.505665
1.240975 -0.533676 0.347943 37.000000 3 332.505667
1.239524 -0.533307 0.213854 32.000000 1 332.505670
1.165682 -0.502737 1.211419 39.000000 14 332.505677
1.182659 -0.510062 1.021366 40.000000 12 332.505680
1.197104 -0.516540 0.851465 40.000000 10 332.505683
1.217827 -0.525485 0.700607 49.000000 8 332.505685
1.227518 -0.529920 0.554222 48.000000 6 332.505688
1.231706 -0.531983 0.414313 40.000000 4 332.505690
1.236376 -0.534256 0.279830 31.000000 2 332.505693
1.251670 -0.541125 0.148683 39.000000 0 332.505695
0.054045 -0.038449 6.054043 89.000000 31 332.505706
0.830151 -0.385441 5.818871 11.000000 28 332.505709
0.718601 -0.334491 3.834224 2.000000 27 332.505711
0.997112 -0.440495 3.529911 20.000000 25 332.505714
1.041748 -0.453375 2.736119 30.000000 23 332.505716
1.092185 -0.475105 2.249103 36.000000 21 332.505719
1.120518 -0.487434 1.867305 38.000000 19 332.505721
1.148270 -0.499509 1.575331 38.000000 17 332.505724
0.318263 -0.167301 6.039276 88.000000 30 332.505732
0.587217 -0.289919 6.054992 90.000000 29 332.505734
0.952757 -0.428980 4.057579 14.000000 26 332.505737
1.022247 -0.447009 3.088255 30.000000 24 332.505739
1.071167 -0.467962 2.479712 35.000000 22 332.505742
1.103381 -0.481812 2.039536 38.000000 20 332.505745
1.129385 -0.493170 1.706027 37.000000 18 332.505747
1.147502 -0.501085 1.435705 39.000000 16 332.505750
1.161974 -0.503786 1.324366 39.000000 15 332.505707
1.181433 -0.512226 1.120323 39.000000 13 332.505710
1.195027 -0.518367 0.938642 40.000000 11 332.505712
1.208421 -0.524180 0.775770 40.000000 9 332.505715
1.217029 -0.528167 0.624338 42.000000 7 332.505718
1.232429 -0.535105 0.484617 40.000000 5 332.505720
1.243611 -0.539961 0.348875 37.000000 3 332.505723
1.242222 -0.539615 0.214300 32.000000 1 332.505725
1.167344 -0.508294 1.214744 39.000000 14 332.505733
1.180871 -0.514187 1.021366 40.000000 12 332.505736
1.199247 -0.522437 0.853998 40.000000 10 332.505738
1.215986 -0.529733 0.700607 49.000000 8 332.505741
1.225661 -0.534202 0.554222 49.000000 6 332.505743
1.234297 -0.538223 0.415485 40.000000 4 332.505746
1.239042 -0.540549 0.280520 31.000000 2 332.505748
1.249774 -0.545491 0.148683 39.000000 0 332.505751
0.053877 -0.038610 6.049043 89.000000 31 332.505762
0.829504 -0.388666 5.823809 11.000000 28 332.505764
0.717429 -0.336998 3.834224 3.000000 27 332.505767
0.998296 -0.445190 3.539454 20.000000 25 332.505769
1.041948 -0.457794 2.740721 31.000000 23 332.505772
1.092713 -0.479878 2.253491 36.000000 21 332.505774
1.121387 -0.492474 1.871438 38.000000 19 332.505777
1.146519 -0.503514 1.575331 38.000000 17 332.505779
0.317707 -0.168356 6.039276 88.000000 30 332.505787
0.586252 -0.291865 6.054992 90.000000 29 332.505790
0.951329 -0.432137 4.057579 15.000000 26 332.505792
1.022338 -0.451093 3.092948 30.000000 24 332.505795
1.071519 -0.472577 2.484213 35.000000 22 332.505797
1.104079 -0.486713 2.043802 38.000000 20 332.505800
1.127656 -0.497109 1.706027 38.000000 18 332.505803
1.145834 -0.504887 1.435705 39.000000 16 332.505805
1.163475 -0.509269 1.327870 39.000000 15 332.505763
1.183204 -0.517907 1.123461 39.000000 13 332.505765
1.193210 -0.522536 0.938642 40.000000 11 332.505768
1.206584 -0.528395 0.775770 40.000000 9 332.505771
1.219518 -0.534059 0.626211 42.000000 7 332.505773
1.230648 -0.539189 0.484617 40.000000 5 332.505776
1.246217 -0.546270 0.349808 37.000000 3 332.505778
1.240331 -0.543948 0.214300 32.000000 1 332.505781
1.165563 -0.512366 1.214744 39.000000 14 332.505789
1.182769 -0.519933 1.024309 40.000000 12 332.505791
1.197507 -0.526411 0.853998 40.000000 10 332.505794
1.218377 -0.535588 0.702705 49.000000 8 332.505796
1.223882 -0.538263 0.554222 48.000000 6 332.505799
1.232506 -0.542313 0.415485 42.000000 4 332.505801
1.237243 -0.544655 0.280520 32.000000 2 332.505804
1.252530 -0.551646 0.148885 39.000000 0 332.505806
0.053749 -0.038789 6.049043 89.000000 31 332.505817
0.828913 -0.391747 5.828749 11.000000 28 332.505820
0.718148 -0.340248 3.844014 3.000000 27 332.505822
0.998176 -0.449111 3.544226 20.000000 25 332.505825
1.040424 -0.461247 2.740721 31.000000 23 332.505827
1.091116 -0.483499 2.253491 35.000000 21 332.505830
1.119747 -0.496190 1.871438 38.000000 19 332.505832
1.147774 -0.508612 1.579168 38.000000 17 332.505835
0.317117 -0.169464 6.039276 89.000000 30 332.505843
0.585706 -0.294150 6.059963 90.000000 29 332.505845
0.948672 -0.434931 4.052740 15.000000 26 332.505848
1.022334 -0.455361 3.097640 29.000000 24 332.505850
1.069863 -0.476314 2.484213 35.000000 22 332.505853
1.104756 -0.491624 2.048068 38.000000 20 332.505856
1.128668 -0.502268 1.710017 37.000000 18 332.505858
1.147074 -0.510462 1.439380 39.000000 16 332.505861
1.161780 -0.513124 1.327870 39.000000 15 332.505818
1.181480 -0.521828 1.123461 39.000000 13 332.505821
1.195296 -0.528180 0.941383 40.000000 11 332.505823
1.208877 -0.534184 0.778088 44.000000 9 332.505826
1.221886 -0.540187 0.628084 42.000000 7 332.505829
1.233146 -0.545422 0.486026 39.000000 5 332.505831
1.244303 -0.550617 0.349808 37.000000 3 332.505834
1.242978 -0.550290 0.214747 32.000000 1 332.505836
1.167180 -0.517946 1.218069 39.000000 14 332.505844
1.180947 -0.524058 1.024309 40.000000 12 332.505847
1.195570 -0.530797 0.853998 40.000000 10 332.505849
1.216406 -0.540050 0.702705 49.000000 8 332.505852
1.226217 -0.544663 0.555864 48.000000 6 332.505854
1.234951 -0.548800 0.416657 42.000000 4 332.505857
1.239763 -0.551198 0.281210 32.000000 2 332.505859
1.250597 -0.556014 0.148885 39.000000 0 332.505862
0.053606 -0.038985 6.049043 89.000000 31 332.505873
0.828874 -0.395453 5.838627 11.000000 28 332.505875
0.716896 -0.342878 3.844014 3.000000 27 332.505878
0.997883 -0.453384 3.548997 20.000000 25 332.505880
1.040509 -0.465856 2.745324 31.000000 23 332.505883
1.091523 -0.488474 2.257880 36.000000 21 332.505885
1.120490 -0.501440 1.875571 38.000000 19 332.505888
1.145902 -0.512816 1.579168 38.000000 17 332.505891
0.316524 -0.170570 6.039276 88.000000 30 332.505898
0.584676 -0.296192 6.059963 91.000000 29 332.505901
0.946006 -0.437711 4.047901 15.000000 26 332.505903
1.022312 -0.459634 3.102333 29.000000 24 332.505906
1.070180 -0.480938 2.488714 35.000000 22 332.505909
1.103033 -0.495477 2.048068 38.000000 20 332.505911
1.129657 -0.507440 1.714006 38.000000 18 332.505914
1.145375 -0.514263 1.439380 39.000000 16 332.505916
1.163148 -0.518832 1.331375 39.000000 15 332.505874
1.179559 -0.526155 1.123461 39.000000 13 332.505876
1.193352 -0.532557 0.941383 39.000000 11 332.505879
1.206911 -0.538611 0.778088 44.000000 9 332.505882
1.219993 -0.544449 0.628084 44.000000 7 332.505884
1.231234 -0.549724 0.486026 39.000000 5 332.505887
1.246859 -0.556961 0.350741 37.000000 3 332.505889
1.241050 -0.554626 0.214747 32.000000 1 332.505892
1.165365 -0.522017 1.218069 39.000000 14 332.505900
1.182800 -0.529830 1.027252 40.000000 12 332.505902
1.197738 -0.536521 0.856530 40.000000 10 332.505905
1.214608 -0.544081 0.702705 49.000000 8 332.505907
1.224404 -0.548726 0.555864 48.000000 6 332.505910
1.233125 -0.552893 0.416657 42.000000 4 332.505912
1.237929 -0.555306 0.281210 32.000000 2 332.505915
1.253207 -0.562422 0.149086 38.000000 0 332.505917
0.053476 -0.039163 6.049043 89.000000 31 332.505928
0.828258 -0.398536 5.843566 11.000000 28 332.505931
0.720339 -0.347467 3.868490 3.000000 27 332.505933
0.999090 -0.457936 3.558541 20.000000 25 332.505936
1.040739 -0.470108 2.749927 31.000000 23 332.505938
1.089898 -0.492091 2.257880 36.000000 21 332.505941
1.121385 -0.506311 1.879704 38.000000 19 332.505943
1.147117 -0.517932 1.583005 38.000000 17 332.505946
0.315927 -0.171673 6.039276 88.000000 30 332.505954
0.583639 -0.298232 6.059963 90.000000 29 332.505956
0.943333 -0.440478 4.043061 11.000000 26 332.505959
1.022272 -0.463913 3.107026 30.000000 24 332.505961
1.070563 -0.485384 2.493215 35.000000 22 332.505964
1.103759 -0.500209 2.052334 38.000000 20 332.505967
1.127968 -0.511183 1.714006 37.000000 18 332.505969
1.146660 -0.519657 1.443055 39.000000 16 332.505972
1.164673 -0.524150 1.334879 39.000000 15 332.505929
1.181358 -0.531661 1.126599 39.000000 13 332.505932
1.195392 -0.538228 0.944124 40.000000 11 332.505935
1.209158 -0.544429 0.780406 44.000000 9 332.505937
1.222312 -0.550609 0.629957 42.000000 7 332.505940
1.233681 -0.555989 0.487436 42.000000 5 332.505942
1.245005 -0.561092 0.350741 37.000000 3 332.505945
1.243744 -0.560785 0.215193 32.000000 1 332.505947
1.167031 -0.527417 1.221394 39.000000 14 332.505955
1.181036 -0.533749 1.027252 40.000000 12 332.505958
1.195858 -0.540699 0.856530 40.000000 10 332.505960
1.216837 -0.550187 0.704803 50.000000 8 332.505963
1.226784 -0.554943 0.557507 49.000000 6 332.505965
1.231187 -0.557194 0.416657 42.000000 4 332.505968
1.235983 -0.559624 0.281210 32.000000 2 332.505970
1.255786 -0.568855 0.149288 38.000000 0 332.505973
0.053339 -0.039349 6.049043 88.000000 31 332.505984
0.827561 -0.401765 5.848505 11.000000 28 332.505986
0.712714 -0.346857 3.834224 4.000000 27 332.505989
0.998841 -0.462048 3.563313 19.000000 25 332.505991
1.040869 -0.474548 2.754529 31.000000 23 332.505994
1.090353 -0.496886 2.262269 36.000000 21 332.505996
1.119611 -0.510222 1.879704 38.000000 19 332.505999
1.145302 -0.521933 1.583005 38.000000 17 332.506002
0.315325 -0.172775 6.039276 89.000000 30 332.506009
0.582120 -0.300022 6.054992 90.000000 29 332.506012
0.938376 -0.442159 4.028544 11.000000 26 332.506014
1.022216 -0.468197 3.111719 29.000000 24 332.506017
1.068862 -0.489118 2.493215 35.000000 22 332.506020
1.104378 -0.505144 2.056600 38.000000 20 332.506022
1.128918 -0.516371 1.717996 38.000000 18 332.506025
1.147922 -0.525067 1.446730 39.000000 16 332.506027
1.166084 -0.529687 1.338384 39.000000 15 332.505985
1.179495 -0.535782 1.126599 39.000000 13 332.505987
1.193506 -0.542398 0.944124 40.000000 11 332.505990
1.207250 -0.548647 0.780406 44.000000 9 332.505993
1.220382 -0.554872 0.629957 40.000000 7 332.505995
1.231733 -0.560292 0.487436 40.000000 5 332.505998
1.243039 -0.565435 0.350741 37.000000 3 332.506000
1.241779 -0.565123 0.215193 32.000000 1 332.506003
1.165183 -0.531487 1.221394 39.000000 14 332.506011
1.179166 -0.537868 1.027252 39.000000 12 332.506013
1.197885 -0.546660 0.859063 40.000000 10 332.506016
1.214909 -0.554432 0.704803 50.000000 8 332.506018
1.224840 -0.559222 0.557507 49.000000 6 332.506021
1.233656 -0.563507 0.417830 42.000000 4 332.506023
1.238526 -0.565993 0.281900 32.000000 2 332.506026
1.253793 -0.573235 0.149288 38.000000 0 332.506029
0.053202 -0.039535 6.049043 88.000000 31 332.506039
0.826153 -0.404651 5.848505 11.000000 28 332.506042
0.716982 -0.352038 3.863595 5.000000 27 332.506044
0.998575 -0.466164 3.568084 19.000000 25 332.506047
1.040981 -0.478995 2.759132 31.000000 23 332.506049
1.088612 -0.500689 2.262269 36.000000 21 332.506052
1.120380 -0.515303 1.883837 38.000000 19 332.506055
1.146386 -0.527267 1.586842 38.000000 17 332.506057
0.314720 -0.173875 6.039276 89.000000 30 332.506065
0.581069 -0.302052 6.054992 90.000000 29 332.506067
0.939099 -0.446513 4.038222 15.000000 26 332.506070
1.022142 -0.472487 3.116411 29.000000 24 332.506073
1.069125 -0.493759 2.497715 35.000000 22 332.506075
1.102608 -0.508995 2.056600 38.000000 20 332.506078
1.129845 -0.521572 1.721985 38.000000 18 332.506080
1.146082 -0.529071 1.446730 40.000000 16 332.506083
1.164228 -0.533754 1.338384 39.000000 15 332.506040
1.181156 -0.541518 1.129737 39.000000 13 332.506043
1.195406 -0.548304 0.946866 39.000000 11 332.506046
1.209355 -0.554704 0.782724 44.000000 9 332.506048
1.218438 -0.559128 0.629957 42.000000 7 332.506051
1.234130 -0.566590 0.488845 42.000000 5 332.506053
1.245522 -0.571820 0.351673 37.000000 3 332.506056
1.239799 -0.569454 0.215193 30.000000 1 332.506058
1.166712 -0.537113 1.224718 39.000000 14 332.506066
1.180953 -0.543671 1.030195 40.000000 12 332.506069
1.195970 -0.550838 0.859063 40.000000 10 332.506071
1.217089 -0.560568 0.706901 50.000000 8 332.506074
1.227169 -0.565470 0.559150 49.000000 6 332.506076
1.231681 -0.567810 0.417830 44.000000 4 332.506079
1.236543 -0.570313 0.281900 32.000000 2 332.506081
1.256321 -0.579701 0.149489 38.000000 0 332.506084
0.053097 -0.039749 6.054043 81.000000 31 332.506095
0.824736 -0.407532 5.848505 11.000000 28 332.506097
0.723958 -0.358611 3.907652 8.000000 27 332.506100
0.998293 -0.470283 3.572856 19.000000 25 332.506102
1.041075 -0.483449 2.763734 31.000000 23 332.506105
1.089031 -0.505494 2.266657 36.000000 21 332.506107
1.118575 -0.519211 1.883837 38.000000 19 332.506110
1.144538 -0.531266 1.586842 38.000000 17 332.506113
0.314142 -0.174918 6.039276 88.000000 30 332.506120
0.580064 -0.303977 6.054992 90.000000 29 332.506123
0.933077 -0.447448 4.018865 6.000000 26 332.506125
1.022133 -0.476603 3.121104 29.000000 24 332.506128
1.069369 -0.498408 2.502216 34.000000 22 332.506131
1.103189 -0.513943 2.060866 38.000000 20 332.506133
1.128017 -0.525513 1.721985 37.000000 18 332.506136
1.147395 -0.534299 1.450406 39.000000 16 332.506138
1.165594 -0.539312 1.341888 39.000000 15 332.506096
1.179259 -0.545638 1.129737 39.000000 13 332.506099
1.193485 -0.552473 0.946866 39.000000 11 332.506101
1.207411 -0.558923 0.782724 42.000000 9 332.506104
1.220784 -0.565113 0.631830 42.000000 7 332.506106
1.232244 -0.570679 0.488845 42.000000 5 332.506109
1.243518 -0.576164 0.351673 37.000000 3 332.506111
1.242321 -0.575873 0.215639 30.000000 1 332.506114
1.164830 -0.541182 1.224718 39.000000 14 332.506122
1.179048 -0.547790 1.030195 39.000000 12 332.506124
1.194137 -0.554801 0.859063 40.000000 10 332.506127
1.215223 -0.564601 0.706901 50.000000 8 332.506129
1.229570 -0.571527 0.560793 48.000000 6 332.506132
1.229792 -0.571891 0.417830 44.000000 4 332.506134
1.239135 -0.576499 0.282590 32.000000 2 332.506137
1.254392 -0.583864 0.149489 38.000000 0 332.506140
0.052965 -0.039925 6.054043 81.000000 31 332.506150
0.823380 -0.410265 5.848505 11.000000 28 332.506153
0.999426 -0.474873 3.582400 20.000000 25 332.506158
1.041235 -0.487728 2.768337 31.000000 23 332.506160
1.089518 -0.510119 2.271046 36.000000 21 332.506163
1.119395 -0.524110 1.887970 38.000000 19 332.506166
1.145674 -0.536418 1.590678 38.000000 17 332.506168
0.313530 -0.176013 6.039276 88.000000 30 332.506176
0.578528 -0.305750 6.050020 89.000000 29 332.506178
0.921320 -0.445770 3.975312 3.000000 26 332.506181
1.022025 -0.480903 3.125797 28.000000 24 332.506184
1.069681 -0.502878 2.506717 34.000000 22 332.506186
1.103839 -0.518707 2.065132 38.000000 20 332.506189
1.128996 -0.530532 1.725975 38.000000 18 332.506191
1.148591 -0.539743 1.454081 39.000000 16 332.506194
1.163799 -0.543175 1.341888 39.000000 15 332.506151
1.180970 -0.551192 1.132874 39.000000 13 332.506154
1.195435 -0.558197 0.949607 39.000000 11 332.506157
1.205551 -0.562923 0.782724 45.000000 9 332.506159
1.218804 -0.569371 0.631830 44.000000 7 332.506162
1.230244 -0.574977 0.488845 42.000000 5 332.506164
1.241601 -0.580285 0.351673 38.000000 3 332.506167
1.240405 -0.579990 0.215639 32.000000 1 332.506169
1.166411 -0.546627 1.228043 39.000000 14 332.506177
1.180885 -0.553412 1.033138 39.000000 12 332.506180
1.196096 -0.560796 0.861595 40.000000 10 332.506182
1.217354 -0.570766 0.708999 49.000000 8 332.506185
1.227567 -0.575816 0.560793 48.000000 6 332.506187
1.232188 -0.578246 0.419002 44.000000 4 332.506190
1.237115 -0.580821 0.282590 32.000000 2 332.506193
1.252346 -0.588239 0.149489 38.000000 0 332.506195
0.052792 -0.040081 6.049043 89.000000 31 332.506206
0.821943 -0.413136 5.848505 10.000000 28 332.506208
0.856953 -0.431863 4.637041 15.000000 27 332.506211
0.999109 -0.479005 3.587171 20.000000 25 332.506213
1.041293 -0.492194 2.772939 31.000000 23 332.506216
1.089897 -0.514942 2.275434 36.000000 21 332.506219
1.120103 -0.529217 1.892103 38.000000 19 332.506221
1.143794 -0.540413 1.590678 38.000000 17 332.506224
0.312913 -0.177106 6.039276 88.000000 30 332.506231
0.577457 -0.307768 6.050020 90.000000 29 332.506234
1.020340 -0.484467 3.125797 28.000000 24 332.506239
1.069887 -0.507542 2.511218 34.000000 22 332.506242
1.102022 -0.522557 2.065132 38.000000 20 332.506244
1.127137 -0.534470 1.725975 38.000000 18 332.506247
1.146700 -0.543749 1.454081 39.000000 16 332.506249
1.165122 -0.548753 1.345393 39.000000 15 332.506207
1.179039 -0.555311 1.132874 39.000000 13 332.506210
1.193479 -0.562366 0.949607 39.000000 11 332.506212
1.207586 -0.569017 0.785042 45.000000 9 332.506215
1.216809 -0.573622 0.631830 42.000000 7 332.506217
1.228230 -0.579268 0.488845 42.000000 5 332.506220
1.239567 -0.584615 0.351673 38.000000 3 332.506222
1.242877 -0.586441 0.216085 32.000000 1 332.506225
1.167872 -0.552291 1.231368 39.000000 14 332.506233
