# .PCD v.7 - Point Cloud Data file format
VERSION .7
FIELDS x y z normal_x normal_y normal_z
SIZE 4 4 4 4 2 4
TYPE F F F F U F
COUNT 1 1 1 1 1 1
WIDTH 950
HEIGHT 1
VIEWPOINT 0 0 0 1 0 0 0
POINTS 950
DATA ascii
0.432626 2.772207 1.554627 72.000000 9 359.278029
0.434509 2.781087 1.225582 75.000000 7 359.278032
0.447835 2.863100 0.941197 12.000000 5 359.278034
0.769754 4.921179 1.037149 99.000000 3 359.278037
0.773512 4.939562 0.540926 99.000000 1 359.278039
0.431615 2.740637 2.551333 57.000000 14 359.278047
0.342481 2.174652 1.686520 7.000000 12 359.278050
0.352117 2.233300 1.413664 7.000000 10 359.278052
0.439126 2.785131 1.390866 79.000000 8 359.278055
0.441136 2.794712 1.073310 82.000000 6 359.278057
0.775405 4.906817 1.288862 92.000000 4 359.278060
0.780007 4.930358 0.787535 102.000000 2 359.278063
0.783057 4.944043 0.295599 108.000000 0 359.278065
0.016875 0.046606 4.129117 85.000000 31 359.278076
0.107872 0.581336 3.759199 73.000000 28 359.278078
0.139547 0.747133 3.677576 54.000000 27 359.278081
0.319964 1.920903 6.268880 7.000000 25 359.278083
0.416924 2.591490 6.243243 7.000000 23 359.278086
0.313282 1.949447 3.684195 3.000000 21 359.278089
0.332300 2.067763 3.148519 7.000000 19 359.278091
0.436755 2.717705 3.371021 41.000000 17 359.278094
0.055311 0.234697 3.997708 87.000000 30 359.278101
0.086870 0.413606 3.892428 84.000000 29 359.278104
0.274650 1.579648 6.206186 7.000000 26 359.278107
0.366164 2.250950 6.255873 6.000000 24 359.278109
0.480723 2.961632 6.264914 8.000000 22 359.278112
0.331275 2.043173 3.455826 10.000000 20 359.278114
0.354495 2.186363 3.006604 7.000000 18 359.278117
0.441319 2.721821 3.067478 60.000000 16 359.278119
0.436969 2.740389 2.806789 57.000000 15 359.278077
0.346209 2.171195 1.854563 7.000000 13 359.278080
0.351015 2.198866 1.544506 6.000000 11 359.278082
0.442301 2.770680 1.554627 70.000000 9 359.278085
0.444946 2.784131 1.227455 75.000000 7 359.278087
0.457826 2.861519 0.941197 12.000000 5 359.278090
0.786927 4.918463 1.037149 99.000000 3 359.278092
0.790750 4.936832 0.540926 99.000000 1 359.278095
0.441773 2.742800 2.554658 54.000000 14 359.278103
0.349427 2.169452 1.683577 8.000000 12 359.278105
0.359224 2.227801 1.411132 7.000000 10 359.278108
0.449568 2.788061 1.392964 78.000000 8 359.278110
0.450889 2.793155 1.073310 83.000000 6 359.278113
0.793304 4.908879 1.290034 96.000000 4 359.278115
0.798004 4.932494 0.788225 102.000000 2 359.278118
0.801109 4.946211 0.295801 108.000000 0 359.278121
0.017037 0.046547 4.129117 85.000000 31 359.278131
0.109900 0.580956 3.759199 73.000000 28 359.278134
0.326416 1.918302 6.264108 6.000000 25 359.278139
0.425968 2.590019 6.243243 7.000000 23 359.278141
0.318920 1.941250 3.671029 7.000000 21 359.278144
0.339059 2.063814 3.144386 7.000000 19 359.278146
0.445199 2.709837 3.363347 33.000000 17 359.278149
0.056130 0.234503 3.997708 86.000000 30 359.278157
0.088313 0.413300 3.892428 83.000000 29 359.278159
0.280382 1.579918 6.211025 12.000000 26 359.278162
0.374019 2.249658 6.255873 10.000000 24 359.278164
0.493196 2.972826 6.291918 8.000000 22 359.278167
0.337978 2.039432 3.451560 10.000000 20 359.278169
0.362617 2.188085 3.010593 6.000000 18 359.278172
0.450817 2.720264 3.067478 62.000000 16 359.278175
0.446533 2.738847 2.806789 59.000000 15 359.278132
0.353160 2.166131 1.851425 7.000000 13 359.278135
0.357341 2.189374 1.539023 6.000000 11 359.278137
0.452683 2.773492 1.556945 71.000000 9 359.278140
0.454662 2.782561 1.227455 75.000000 7 359.278143
0.468587 2.864638 0.942606 12.000000 5 359.278145
0.804884 4.920534 1.038082 99.000000 3 359.278148
0.808783 4.938957 0.541372 99.000000 1 359.278150
0.450738 2.737557 2.551333 49.000000 14 359.278158
0.356341 2.164231 1.680633 8.000000 12 359.278161
0.366998 2.226533 1.411132 7.000000 10 359.278163
0.459297 2.786475 1.392964 78.000000 8 359.278166
0.461405 2.796223 1.074953 84.000000 6 359.278168
0.811226 4.910876 1.291206 97.000000 4 359.278171
0.815216 4.929678 0.788225 102.000000 2 359.278173
0.818369 4.943385 0.295801 108.000000 0 359.278176
0.017200 0.046487 4.129117 85.000000 31 359.278187
0.112075 0.581331 3.764139 79.000000 28 359.278189
0.239266 1.231882 6.056657 43.000000 27 359.278192
0.333110 1.917151 6.264108 9.000000 25 359.278194
0.435006 2.588516 6.243243 7.000000 23 359.278197
0.325298 1.937762 3.666640 12.000000 21 359.278199
0.346261 2.062618 3.144386 7.000000 19 359.278202
0.056948 0.234306 3.997708 87.000000 30 359.278212
0.089755 0.412990 3.892428 83.000000 29 359.278215
0.285895 1.578930 6.211025 9.000000 26 359.278217
0.381869 2.248339 6.255873 6.000000 24 359.278220
0.502842 2.966793 6.282917 6.000000 22 359.278222
0.345095 2.038239 3.451560 8.000000 20 359.278225
0.367234 2.168976 2.986656 5.000000 18 359.278228
0.460310 2.718674 3.067478 62.000000 16 359.278230
0.456676 2.740790 2.810293 59.000000 15 359.278188
0.360719 2.164885 1.851425 7.000000 13 359.278190
0.364294 2.183988 1.536281 7.000000 11 359.278193
0.462362 2.771895 1.556945 71.000000 9 359.278195
0.465136 2.785529 1.229328 75.000000 7 359.278198
0.478583 2.862985 0.942606 12.000000 5 359.278201
0.822865 4.922539 1.039014 99.000000 3 359.278203
0.826840 4.941015 0.541818 99.000000 1 359.278206
0.460291 2.735967 2.551333 39.000000 14 359.278213
0.363893 2.162974 1.680633 8.000000 12 359.278216
0.374052 2.220987 1.408599 8.000000 10 359.278219
0.469775 2.789330 1.395062 78.000000 8 359.278221
0.471163 2.794596 1.074953 84.000000 6 359.278224
0.828364 4.908014 1.291206 97.000000 4 359.278226
0.833244 4.931686 0.788915 102.000000 2 359.278229
0.836453 4.945424 0.296002 108.000000 0 359.278231
0.017380 0.046467 4.134116 86.000000 31 359.278242
0.114254 0.581699 3.769078 78.000000 28 359.278245
0.244158 1.234036 6.071343 75.000000 27 359.278247
0.339540 1.914506 6.259336 6.000000 25 359.278250
0.444370 2.588908 6.247845 8.000000 23 359.278252
0.329630 1.922447 3.640308 4.000000 21 359.278255
0.353459 2.061396 3.144386 7.000000 19 359.278257
0.057766 0.234105 3.997708 87.000000 30 359.278268
0.091196 0.412674 3.892428 83.000000 29 359.278270
0.291405 1.577922 6.211025 8.000000 26 359.278273
0.390010 2.248692 6.260565 6.000000 24 359.278275
0.352208 2.037023 3.451560 7.000000 20 359.278281
0.377370 2.182530 3.006604 5.000000 18 359.278283
0.470374 2.720391 3.071153 60.000000 16 359.278286
0.466241 2.739179 2.810293 57.000000 15 359.278243
0.367620 2.159775 1.848287 7.000000 13 359.278246
0.371213 2.178581 1.533540 7.000000 11 359.278248
0.472779 2.774631 1.559263 71.000000 9 359.278251
0.474856 2.783889 1.229328 75.000000 7 359.278254
0.489381 2.866025 0.944015 12.000000 5 359.278256
0.840043 4.919637 1.039014 99.000000 3 359.278259
0.844082 4.938098 0.541818 99.000000 1 359.278261
0.469206 2.730663 2.548008 33.000000 14 359.278269
0.370757 2.157707 1.677690 8.000000 12 359.278272
0.381071 2.215419 1.406067 7.000000 10 359.278274
0.479508 2.787674 1.395062 78.000000 8 359.278277
0.481716 2.797588 1.076596 82.000000 6 359.278279
0.846316 4.909882 1.292378 98.000000 4 359.278282
0.851296 4.933628 0.789604 102.000000 2 359.278284
0.854561 4.947397 0.296204 108.000000 0 359.278287
0.017542 0.046406 4.134116 86.000000 31 359.278298
0.116437 0.582058 3.774017 78.000000 28 359.278300
0.248263 1.232178 6.066447 84.000000 27 359.278303
0.346220 1.913309 6.259336 6.000000 25 359.278305
0.453741 2.589265 6.252448 7.000000 23 359.278308
0.336752 1.923644 3.644697 4.000000 21 359.278310
0.360652 2.060150 3.144386 7.000000 19 359.278313
0.403894 2.307133 2.879892 3.000000 17 359.278315
0.058654 0.234183 4.002699 87.000000 30 359.278323
0.092754 0.412874 3.897399 83.000000 29 359.278326
0.296911 1.576895 6.211025 9.000000 26 359.278328
0.397857 2.247317 6.260565 8.000000 24 359.278331
0.358863 2.033212 3.447294 6.000000 20 359.278336
0.377652 2.139647 2.950751 3.000000 18 359.278339
0.480457 2.722071 3.074828 60.000000 16 359.278341
0.476410 2.741048 2.813798 59.000000 15 359.278299
0.374490 2.154643 1.845150 7.000000 13 359.278301
0.378098 2.173153 1.530798 7.000000 11 359.278304
0.482461 2.772964 1.559263 72.000000 9 359.278307
0.484571 2.782214 1.229328 73.000000 7 359.278309
0.499383 2.864300 0.944015 11.000000 5 359.278312
0.858054 4.921514 1.039947 99.000000 3 359.278314
0.862170 4.940028 0.542265 99.000000 1 359.278317
0.481961 2.747399 2.564632 24.000000 14 359.278325
0.377588 2.152419 1.674747 8.000000 12 359.278327
0.388057 2.209829 1.403534 7.000000 10 359.278330
0.490021 2.790453 1.397161 78.000000 8 359.278332
0.491479 2.795889 1.076596 84.000000 6 359.278335
0.864292 4.911685 1.293551 98.000000 4 359.278337
0.868513 4.930626 0.789604 102.000000 2 359.278340
0.872693 4.949304 0.296405 108.000000 0 359.278342
0.017704 0.046344 4.134116 86.000000 31 359.278353
0.118623 0.582410 3.778957 78.000000 28 359.278356
0.252767 1.232301 6.071343 85.000000 27 359.278358
0.352897 1.912089 6.259336 10.000000 25 359.278361
0.463464 2.591512 6.261652 8.000000 23 359.278363
0.343043 1.920099 3.640308 6.000000 21 359.278366
0.368336 2.061649 3.148519 7.000000 19 359.278368
0.415892 2.327801 2.906751 3.000000 17 359.278371
0.059471 0.233977 4.002699 86.000000 30 359.278379
0.094194 0.412547 3.897399 83.000000 29 359.278381
0.302651 1.577085 6.215865 12.000000 26 359.278384
0.406006 2.247613 6.265258 7.000000 24 359.278386
0.365958 2.031947 3.447294 6.000000 20 359.278392
0.381913 2.120518 2.926814 3.000000 18 359.278394
0.490556 2.723714 3.078504 62.000000 16 359.278397
0.485975 2.739369 2.813798 57.000000 15 359.278354
0.381329 2.149490 1.842012 7.000000 13 359.278357
0.385682 2.171820 1.530798 7.000000 11 359.278359
0.492912 2.775625 1.561581 70.000000 9 359.278362
0.494280 2.780506 1.229328 75.000000 7 359.278365
0.510218 2.867262 0.945424 11.000000 5 359.278367
0.876089 4.923325 1.040879 98.000000 3 359.278370
0.880282 4.941892 0.542711 99.000000 1 359.278372
0.487600 2.723645 2.544683 14.000000 14 359.278380
0.384387 2.147109 1.671804 8.000000 12 359.278383
0.395768 2.208461 1.403534 7.000000 10 359.278385
0.499759 2.788725 1.397161 79.000000 8 359.278388
0.501235 2.794157 1.076596 82.000000 6 359.278390
0.881432 4.908638 1.293551 98.000000 4 359.278393
0.886594 4.932438 0.790294 102.000000 2 359.278395
0.889964 4.946228 0.296405 110.000000 0 359.278398
0.017866 0.046282 4.134116 85.000000 31 359.278409
0.120655 0.581992 3.778957 78.000000 28 359.278411
0.257067 1.231411 6.071343 84.000000 27 359.278414
0.359845 1.912313 6.264108 6.000000 25 359.278416
0.472858 2.591800 6.266255 7.000000 23 359.278419
0.349744 1.918890 3.640308 7.000000 21 359.278421
0.374521 2.054814 3.140253 7.000000 19 359.278424
0.425164 2.332643 2.914424 3.000000 17 359.278427
0.060288 0.233768 4.002699 86.000000 30 359.278434
0.095756 0.412736 3.902371 83.000000 29 359.278437
0.307913 1.574784 6.211025 7.000000 26 359.278439
0.414162 2.247879 6.269951 7.000000 24 359.278442
0.312621 1.700097 3.636426 3.000000 22 359.278445
0.372577 2.028092 3.443028 6.000000 20 359.278447
0.383867 2.089529 2.886919 5.000000 18 359.278450
0.500674 2.725319 3.082179 63.000000 16 359.278452
0.495534 2.737656 2.813798 57.000000 15 359.278410
0.388137 2.144315 1.838874 7.000000 13 359.278412
0.392515 2.166346 1.528057 7.000000 11 359.278415
0.502598 2.773887 1.561581 70.000000 9 359.278418
0.503982 2.778764 1.229328 75.000000 7 359.278420
0.521081 2.870184 0.946833 11.000000 5 359.278423
0.894146 4.925070 1.041812 99.000000 3 359.278425
0.898418 4.943688 0.543157 99.000000 1 359.278428
0.490395 2.685191 2.511435 9.000000 14 359.278436
0.391879 2.145754 1.671804 8.000000 12 359.278438
0.402699 2.202825 1.401002 7.000000 10 359.278441
0.510306 2.791429 1.399259 79.000000 8 359.278443
0.511836 2.797035 1.078238 82.000000 6 359.278446
0.899437 4.910313 1.294723 98.000000 4 359.278448
0.903806 4.929313 0.790294 101.000000 2 359.278451
0.908126 4.948005 0.296607 109.000000 0 359.278453
0.018008 0.046180 4.129117 85.000000 31 359.278464
0.123330 0.584608 3.798713 76.000000 28 359.278467
0.261364 1.230506 6.071343 83.000000 27 359.278469
0.366518 1.911045 6.264108 5.000000 25 359.278472
0.482617 2.593975 6.275460 7.000000 23 359.278474
0.356440 1.917657 3.640308 7.000000 21 359.278477
0.381178 2.050727 3.136120 7.000000 19 359.278479
0.421587 2.268106 2.837686 3.000000 17 359.278482
0.061103 0.233556 4.002699 86.000000 30 359.278490
0.097196 0.412399 3.902371 82.000000 29 359.278492
0.313408 1.573700 6.211025 7.000000 26 359.278495
0.422006 2.246420 6.269951 6.000000 24 359.278497
0.320859 1.709641 3.658930 4.000000 22 359.278500
0.380008 2.026713 3.443028 7.000000 20 359.278503
0.389301 2.076258 2.870961 7.000000 18 359.278505
0.511909 2.730130 3.089529 70.000000 16 359.278508
0.505735 2.739416 2.817302 57.000000 15 359.278465
0.395619 2.142947 1.838874 7.000000 13 359.278468
0.400074 2.164963 1.528057 7.000000 11 359.278471
0.513083 2.776473 1.563899 72.000000 9 359.278473
0.513679 2.776987 1.229328 75.000000 7 359.278476
0.531096 2.868347 0.946833 11.000000 5 359.278478
0.912192 4.921760 1.041812 99.000000 3 359.278481
0.916531 4.940362 0.543157 99.000000 1 359.278483
0.486546 2.609953 2.444938 6.000000 14 359.278491
0.399000 2.140330 1.668861 7.000000 12 359.278494
0.410770 2.201334 1.401002 7.000000 10 359.278496
0.520534 2.789539 1.399259 79.000000 8 359.278499
0.522084 2.795141 1.078238 82.000000 6 359.278501
0.918321 4.911761 1.295895 98.000000 4 359.278504
0.922778 4.930835 0.790984 101.000000 2 359.278506
0.926311 4.949716 0.296809 109.000000 0 359.278509
0.018178 0.046114 4.129117 86.000000 31 359.278520
0.125635 0.584911 3.803653 73.000000 28 359.278522
0.265872 1.229540 6.071343 83.000000 27 359.278525
0.373807 1.911155 6.268880 10.000000 25 359.278527
0.491757 2.590270 6.270858 7.000000 23 359.278530
0.363466 1.916338 3.640308 7.000000 21 359.278532
0.385545 2.032728 3.111322 6.000000 19 359.278535
0.432884 2.282295 2.856870 5.000000 17 359.278538
0.061959 0.233330 4.002699 86.000000 30 359.278545
0.098707 0.412040 3.902371 82.000000 29 359.278548
0.319174 1.572541 6.211025 9.000000 26 359.278550
0.430561 2.246553 6.274643 6.000000 24 359.278553
0.325188 1.699955 3.640927 9.000000 22 359.278556
0.386591 2.022813 3.438762 7.000000 20 359.278558
0.397112 2.077847 2.874950 15.000000 18 359.278561
0.522708 2.734987 3.096879 75.000000 16 359.278563
0.515772 2.737544 2.817302 57.000000 15 359.278521
0.402750 2.137657 1.835736 7.000000 13 359.278523
0.407232 2.159373 1.525315 7.000000 11 359.278526
0.523255 2.774573 1.563899 72.000000 9 359.278529
0.524714 2.779641 1.231201 73.000000 7 359.278531
0.542497 2.871096 0.948243 11.000000 5 359.278534
0.930278 4.923372 1.042745 99.000000 3 359.278536
0.934696 4.942026 0.543603 99.000000 1 359.278539
0.405714 2.134953 1.665918 7.000000 12 359.278549
0.417646 2.195652 1.398470 7.000000 10 359.278552
0.531116 2.792164 1.401357 79.000000 8 359.278554
0.531838 2.793301 1.078238 82.000000 6 359.278557
0.936371 4.913301 1.297068 99.000000 4 359.278559
0.940912 4.932449 0.791674 101.000000 2 359.278562
0.945384 4.951194 0.297010 109.000000 0 359.278565
0.018338 0.046050 4.129117 85.000000 31 359.278575
0.127510 0.583710 3.798713 37.000000 28 359.278578
0.270163 1.228605 6.071343 86.000000 27 359.278580
0.380476 1.909838 6.268880 6.000000 25 359.278583
0.500796 2.588537 6.270858 6.000000 23 359.278585
0.370153 1.915058 3.640308 7.000000 21 359.278588
0.385695 1.995452 3.057594 5.000000 19 359.278591
0.441457 2.283917 2.860707 6.000000 17 359.278593
0.062773 0.233113 4.002699 86.000000 30 359.278601
0.100144 0.411693 3.902371 82.000000 29 359.278603
0.324661 1.571417 6.211025 11.000000 26 359.278606
0.438401 2.245036 6.274643 9.000000 24 359.278609
0.329870 1.692397 3.627425 5.000000 22 359.278611
0.393649 2.021451 3.438762 7.000000 20 359.278614
0.403786 2.073490 2.870961 8.000000 18 359.278616
0.533548 2.739800 3.104230 75.000000 16 359.278619
0.525997 2.739229 2.820807 57.000000 15 359.278576
0.410209 2.136238 1.835736 7.000000 13 359.278579
0.413978 2.153832 1.522574 7.000000 11 359.278582
0.533774 2.777081 1.566217 72.000000 9 359.278584
0.534413 2.777793 1.231201 73.000000 7 359.278587
0.552515 2.869184 0.948243 10.000000 5 359.278589
0.948387 4.924919 1.043677 98.000000 3 359.278592
0.952884 4.943624 0.544050 99.000000 1 359.278594
0.420266 2.170210 2.049281 3.000000 14 359.278602
0.413164 2.133523 1.665918 8.000000 12 359.278605
0.425308 2.194180 1.398470 7.000000 10 359.278607
0.540859 2.790293 1.401357 79.000000 8 359.278610
0.542484 2.796064 1.079881 82.000000 6 359.278612
0.954442 4.914773 1.298240 99.000000 4 359.278615
0.958124 4.929134 0.791674 101.000000 2 359.278617
0.963615 4.952767 0.297212 110.000000 0 359.278620
0.018499 0.045986 4.129117 85.000000 31 359.278631
0.274672 1.228647 6.076238 87.000000 27 359.278636
0.387437 1.909962 6.273652 5.000000 25 359.278638
0.509829 2.586773 6.270858 6.000000 23 359.278641
0.376835 1.913754 3.640308 7.000000 21 359.278643
0.386134 1.960962 3.007999 5.000000 19 359.278646
0.450665 2.288653 2.868381 6.000000 17 359.278649
0.063623 0.233182 4.007691 87.000000 30 359.278656
0.101509 0.411359 3.902371 78.000000 29 359.278659
0.329870 1.570332 6.211025 7.000000 26 359.278661
0.445507 2.241877 6.269951 6.000000 24 359.278664
0.336200 1.693371 3.631925 5.000000 22 359.278667
0.400196 2.017506 3.434496 7.000000 20 359.278669
0.411022 2.072068 2.870961 6.000000 18 359.278672
0.543290 2.741342 3.107905 75.000000 16 359.278674
0.535556 2.737377 2.820807 57.000000 15 359.278632
0.416916 2.130973 1.832599 8.000000 13 359.278635
0.421494 2.152374 1.522574 7.000000 11 359.278637
0.544315 2.779548 1.568535 72.000000 9 359.278640
0.544513 2.780555 1.233074 73.000000 7 359.278642
0.563872 2.876752 0.951061 10.000000 5 359.278645
0.966518 4.926398 1.044610 98.000000 3 359.278647
0.971094 4.945154 0.544496 100.000000 1 359.278650
0.421334 2.135757 2.019357 3.000000 14 359.278658
0.419827 2.128103 1.662974 8.000000 12 359.278660
0.431747 2.188528 1.395937 8.000000 10 359.278663
0.550109 2.788484 1.401357 78.000000 8 359.278665
0.551753 2.794250 1.079881 82.000000 6 359.278668
0.971678 4.916350 1.299412 99.000000 4 359.278670
0.975425 4.930788 0.792364 102.000000 2 359.278673
0.981004 4.954447 0.297413 110.000000 0 359.278676
0.018651 0.045924 4.129117 85.000000 31 359.278686
0.208818 0.924615 6.026319 76.000000 28 359.278689
0.278745 1.227730 6.076238 87.000000 27 359.278691
0.393769 1.908667 6.273652 9.000000 25 359.278694
0.383180 1.912494 3.640308 7.000000 21 359.278699
0.384895 1.921042 2.950138 5.000000 19 359.278702
0.458882 2.290290 2.872218 7.000000 17 359.278704
0.064437 0.232959 4.007691 87.000000 30 359.278712
0.102944 0.411002 3.902371 78.000000 29 359.278714
0.335350 1.569171 6.211025 7.000000 26 359.278717
0.453330 2.240309 6.269951 6.000000 24 359.278720
0.341677 1.690053 3.627425 5.000000 22 359.278722
0.407236 2.016097 3.434496 7.000000 20 359.278725
0.418252 2.070620 2.870961 6.000000 18 359.278727
0.554005 2.742655 3.111580 75.000000 16 359.278730
0.545327 2.739083 2.824311 59.000000 15 359.278687
0.423981 2.129579 1.832599 8.000000 13 359.278690
0.427812 2.146863 1.519832 7.000000 11 359.278693
0.554396 2.782073 1.570853 72.000000 9 359.278695
0.554215 2.778637 1.233074 73.000000 7 359.278698
0.571093 2.860653 0.946833 11.000000 5 359.278700
0.984671 4.927812 1.045543 99.000000 3 359.278703
0.988350 4.941734 0.544496 100.000000 1 359.278705
0.424373 2.112306 1.999408 3.000000 14 359.278713
0.427253 2.126624 1.662974 8.000000 12 359.278716
0.438916 2.182705 1.393405 8.000000 10 359.278718
0.561221 2.790899 1.403455 79.000000 8 359.278721
0.562923 2.796838 1.081524 82.000000 6 359.278723
0.990650 4.917521 1.300585 99.000000 4 359.278726
0.994470 4.932034 0.793053 101.000000 2 359.278729
0.999280 4.955889 0.297615 110.000000 0 359.278731
0.018820 0.045856 4.129117 84.000000 31 359.278742
0.212903 0.926873 6.046076 86.000000 28 359.278744
0.283243 1.226700 6.076238 86.000000 27 359.278747
0.401069 1.908672 6.278423 6.000000 25 359.278749
0.390187 1.911076 3.640308 7.000000 21 359.278755
0.386867 1.894804 2.912941 5.000000 19 359.278757
0.467273 2.288592 2.872218 7.000000 17 359.278760
0.065290 0.232721 4.007691 87.000000 30 359.278767
0.104450 0.410622 3.902371 74.000000 29 359.278770
0.341366 1.569160 6.215865 8.000000 26 359.278773
0.461538 2.238632 6.269951 10.000000 24 359.278775
0.347574 1.688850 3.627425 7.000000 22 359.278778
0.412695 2.006999 3.421699 7.000000 20 359.278780
0.425477 2.069148 2.870961 6.000000 18 359.278783
0.564258 2.744025 3.115255 75.000000 16 359.278785
0.555362 2.737066 2.824311 59.000000 15 359.278743
0.431783 2.128011 1.832599 8.000000 13 359.278746
0.435677 2.145281 1.519832 7.000000 11 359.278748
0.564589 2.780022 1.570853 72.000000 9 359.278751
0.565319 2.781130 1.234947 73.000000 7 359.278753
0.583487 2.867942 0.949652 11.000000 5 359.278756
1.001867 4.924345 1.045543 98.000000 3 359.278758
1.006588 4.943133 0.544942 100.000000 1 359.278761
0.433989 2.121787 2.009383 5.000000 14 359.278769
0.433863 2.121160 1.660031 8.000000 12 359.278771
0.445668 2.176936 1.390872 8.000000 10 359.278774
0.570959 2.788923 1.403455 78.000000 8 359.278776
0.573630 2.799482 1.083166 82.000000 6 359.278779
1.008786 4.918794 1.301757 101.000000 4 359.278781
1.012676 4.933384 0.793743 101.000000 2 359.278784
1.018443 4.957087 0.297816 110.000000 0 359.278787
0.018980 0.045790 4.129117 84.000000 31 359.278798
0.215960 0.925367 6.041137 87.000000 28 359.278801
0.287523 1.225704 6.076238 86.000000 27 359.278803
0.407729 1.907261 6.278423 6.000000 25 359.278806
0.396855 1.909703 3.640308 7.000000 21 359.278811
0.390043 1.876911 2.888143 7.000000 19 359.278813
0.475259 2.286947 2.872218 7.000000 17 359.278816
0.066022 0.232213 4.002699 86.000000 30 359.278824
0.106017 0.410771 3.907342 75.000000 29 359.278826
0.346842 1.567959 6.215865 10.000000 26 359.278829
0.469349 2.237007 6.269951 6.000000 24 359.278831
0.353467 1.687626 3.627425 8.000000 22 359.278834
0.418630 2.000441 3.413167 7.000000 20 359.278836
0.432080 2.064700 2.866971 7.000000 18 359.278839
0.574527 2.745357 3.118930 74.000000 16 359.278842
0.565634 2.738604 2.827816 66.000000 15 359.278799
0.439209 2.126490 1.832599 9.000000 13 359.278802
0.442317 2.139652 1.517091 7.000000 11 359.278804
0.575186 2.782372 1.573171 72.000000 9 359.278807
0.575024 2.779140 1.234947 73.000000 7 359.278810
0.593494 2.865888 0.949652 11.000000 5 359.278812
1.020046 4.925628 1.046475 99.000000 3 359.278815
1.024847 4.944466 0.545388 96.000000 1 359.278817
0.439871 2.112947 2.002733 6.000000 14 359.278825
0.441265 2.119633 1.660031 8.000000 12 359.278828
0.453264 2.175367 1.390872 10.000000 10 359.278830
0.581617 2.791356 1.405553 78.000000 8 359.278833
0.583399 2.797463 1.083166 82.000000 6 359.278835
1.026943 4.920000 1.302929 101.000000 4 359.278838
1.030903 4.934667 0.794433 101.000000 2 359.278840
1.036763 4.958392 0.298018 109.000000 0 359.278843
0.019119 0.045684 4.124116 78.000000 31 359.278854
0.219369 0.925364 6.046076 87.000000 28 359.278856
0.291800 1.224693 6.076238 87.000000 27 359.278859
0.414384 1.905826 6.278423 8.000000 25 359.278861
0.314915 1.488041 3.642816 3.000000 23 359.278864
0.403519 1.908306 3.640308 7.000000 21 359.278866
0.396592 1.875538 2.888143 9.000000 19 359.278869
0.483239 2.285274 2.872218 7.000000 17 359.278871
0.066832 0.231982 4.002699 86.000000 30 359.278879
0.107450 0.410399 3.907342 74.000000 29 359.278882
0.352589 1.567966 6.220704 7.000000 26 359.278884
0.477155 2.235355 6.269951 6.000000 24 359.278887
0.359356 1.686382 3.627425 7.000000 22 359.278889
0.420722 1.976010 3.374774 7.000000 20 359.278892
0.439285 2.063179 2.866971 7.000000 18 359.278895
0.584107 2.743335 3.118930 74.000000 16 359.278897
0.575190 2.736612 2.827816 62.000000 15 359.278855
0.446629 2.124944 1.832599 9.000000 13 359.278857
0.449783 2.138095 1.517091 7.000000 11 359.278860
0.584895 2.780348 1.573171 72.000000 9 359.278862
0.585676 2.781652 1.236820 74.000000 7 359.278865
1.038246 4.926844 1.047408 99.000000 3 359.278870
1.043128 4.945732 0.545834 96.000000 1 359.278873
0.446470 2.107746 1.999408 7.000000 14 359.278880
0.448661 2.118079 1.660031 8.000000 12 359.278883
0.459960 2.169554 1.388340 10.000000 10 359.278886
0.591357 2.789309 1.405553 81.000000 8 359.278888
0.594140 2.800029 1.084809 82.000000 6 359.278891
1.044111 4.916386 1.302929 101.000000 4 359.278893
1.048122 4.931038 0.794433 101.000000 2 359.278896
1.054064 4.954742 0.298018 109.000000 0 359.278898
0.019279 0.045617 4.124116 78.000000 31 359.278909
0.222597 0.924592 6.046076 87.000000 28 359.278912
0.296073 1.223667 6.076238 87.000000 27 359.278914
0.420712 1.902910 6.273652 7.000000 25 359.278917
0.319696 1.485022 3.638214 4.000000 23 359.278919
0.410178 1.906886 3.640308 7.000000 21 359.278922
0.400178 1.860387 2.867479 7.000000 19 359.278924
0.491213 2.283574 2.872218 7.000000 17 359.278927
0.067641 0.231747 4.002699 86.000000 30 359.278935
0.109020 0.410537 3.912313 74.000000 29 359.278937
0.358060 1.566725 6.220704 7.000000 26 359.278940
0.485321 2.235363 6.274643 7.000000 24 359.278942
0.365241 1.685118 3.627425 7.000000 22 359.278945
0.412160 1.903159 3.255327 6.000000 20 359.278948
0.445846 2.058688 2.862982 8.000000 18 359.278950
0.594397 2.744592 3.122606 73.000000 16 359.278953
0.585485 2.738075 2.831321 36.000000 15 359.278910
0.454044 2.123372 1.832599 9.000000 13 359.278913
0.457243 2.136512 1.517091 7.000000 11 359.278915
0.594597 2.778289 1.573171 39.000000 9 359.278918
0.596354 2.784124 1.238693 74.000000 7 359.278921
0.615499 2.871057 0.952470 11.000000 5 359.278923
1.056467 4.927993 1.048340 99.000000 3 359.278926
1.060385 4.942060 0.545834 100.000000 1 359.278928
0.453038 2.102524 1.996083 7.000000 14 359.278936
0.456052 2.116500 1.660031 7.000000 12 359.278939
0.467531 2.167935 1.388340 10.000000 10 359.278941
0.602047 2.791664 1.407651 81.000000 8 359.278944
0.603911 2.797938 1.084809 82.000000 6 359.278946
1.062292 4.917462 1.304102 103.000000 4 359.278949
1.066374 4.932190 0.795123 102.000000 2 359.278951
1.072410 4.955916 0.298219 110.000000 0 359.278954
0.019438 0.045550 4.124116 85.000000 31 359.278965
0.225823 0.923810 6.046076 85.000000 28 359.278967
0.300343 1.222626 6.076238 87.000000 27 359.278970
0.427352 1.901429 6.273652 7.000000 25 359.278972
0.326967 1.493440 3.661226 5.000000 23 359.278975
0.416831 1.905442 3.640308 7.000000 21 359.278977
0.407271 1.861728 2.871612 7.000000 19 359.278980
0.499181 2.281845 2.872218 7.000000 17 359.278982
0.068450 0.231509 4.002699 87.000000 30 359.278990
0.110452 0.410154 3.912313 72.000000 29 359.278993
0.363811 1.566691 6.225543 9.000000 26 359.278995
0.493865 2.237025 6.284029 7.000000 24 359.278998
0.371121 1.683832 3.627425 7.000000 22 359.279000
0.402534 1.827846 3.131615 5.000000 20 359.279003
0.452381 2.054175 2.858992 8.000000 18 359.279006
0.603974 2.742501 3.122606 73.000000 16 359.279008
0.597313 2.746469 2.841834 16.000000 15 359.278966
0.460625 2.117970 1.829461 8.000000 13 359.278968
0.463809 2.130817 1.514349 7.000000 11 359.278971
0.552467 2.538110 1.445680 2.000000 9 359.278974
0.606068 2.782025 1.238693 74.000000 7 359.278976
0.625517 2.868891 0.952470 11.000000 5 359.278979
1.073663 4.924275 1.048340 99.000000 3 359.278981
1.078692 4.943194 0.546281 100.000000 1 359.278984
0.460374 2.100930 1.996083 7.000000 14 359.278992
0.463437 2.114896 1.660031 7.000000 12 359.278994
0.475095 2.166290 1.388340 10.000000 10 359.278997
0.612760 2.793978 1.409749 81.000000 8 359.278999
0.613674 2.795813 1.084809 82.000000 6 359.279002
1.082579 4.927967 1.307618 52.000000 4 359.279004
1.084648 4.933274 0.795813 102.000000 2 359.279007
1.089703 4.952142 0.298219 110.000000 0 359.279009
0.019617 0.045520 4.129117 85.000000 31 359.279020
0.229047 0.923016 6.046076 84.000000 28 359.279023
0.304609 1.221570 6.076238 87.000000 27 359.279025
0.433986 1.899926 6.273652 7.000000 25 359.279028
0.331329 1.488475 3.652021 7.000000 23 359.279030
0.422960 1.901637 3.635919 7.000000 21 359.279033
0.412545 1.854801 2.863346 6.000000 19 359.279035
0.507143 2.280089 2.872218 7.000000 17 359.279038
0.069342 0.231546 4.007691 86.000000 30 359.279046
0.112025 0.410281 3.917285 72.000000 29 359.279048
0.369278 1.565412 6.225543 9.000000 26 359.279051
0.502427 2.238655 6.293415 8.000000 24 359.279053
0.376996 1.682527 3.627425 7.000000 22 359.279056
0.378712 1.691544 2.905520 5.000000 20 359.279059
0.459549 2.052584 2.858992 8.000000 18 359.279061
0.614284 2.743685 3.126281 74.000000 16 359.279064
0.468016 2.116349 1.829461 7.000000 13 359.279024
0.471244 2.129185 1.514349 7.000000 11 359.279026
0.550792 2.488586 1.420181 2.000000 9 359.279029
0.616778 2.784419 1.240566 76.000000 7 359.279032
0.636566 2.871373 0.953879 11.000000 5 359.279034
1.095098 4.939680 1.052071 99.000000 3 359.279037
1.097019 4.944261 0.546727 100.000000 1 359.279039
0.467705 2.099310 1.996083 7.000000 14 359.279047
0.469938 2.109320 1.657088 8.000000 12 359.279050
0.482654 2.164618 1.388340 11.000000 10 359.279052
0.623497 2.796252 1.411847 81.000000 8 359.279055
0.623429 2.793654 1.084809 81.000000 6 359.279057
1.087061 4.867232 1.293551 20.000000 4 359.279060
1.102942 4.934290 0.796502 103.000000 2 359.279062
1.108073 4.953184 0.298421 111.000000 0 359.279065
0.019776 0.045451 4.129117 85.000000 31 359.279076
0.232267 0.922211 6.046076 86.000000 28 359.279078
0.308871 1.220499 6.076238 76.000000 27 359.279081
0.440616 1.898400 6.273652 8.000000 25 359.279083
0.335660 1.483499 3.642816 10.000000 23 359.279086
0.429595 1.900149 3.635919 7.000000 21 359.279088
0.419017 1.853350 2.863346 6.000000 19 359.279091
0.515099 2.278305 2.872218 7.000000 17 359.279094
0.070149 0.231303 4.007691 87.000000 30 359.279101
0.113600 0.410402 3.922256 71.000000 29 359.279104
0.374740 1.564113 6.225543 7.000000 26 359.279106
0.511773 2.243617 6.312186 7.000000 24 359.279109
0.382867 1.681201 3.627425 7.000000 22 359.279112
0.384614 1.690212 2.905520 5.000000 20 359.279114
0.466711 2.050967 2.858992 8.000000 18 359.279117
0.624610 2.744829 3.129956 74.000000 16 359.279119
0.454556 2.021994 2.116393 2.000000 15 359.279077
0.475400 2.114703 1.829461 7.000000 13 359.279079
0.477756 2.123448 1.511608 7.000000 11 359.279082
0.528357 2.348339 1.346004 2.000000 9 359.279085
0.626494 2.782249 1.240566 76.000000 7 359.279087
0.646585 2.869134 0.953879 11.000000 5 359.279090
1.108014 4.916659 1.048340 29.000000 3 359.279092
1.114271 4.940401 0.546727 100.000000 1 359.279095
0.474205 2.094023 1.992758 8.000000 14 359.279103
0.477298 2.107666 1.657088 8.000000 12 359.279105
0.491160 2.167125 1.390872 14.000000 10 359.279108
0.634257 2.798485 1.413945 81.000000 8 359.279110
0.633177 2.791461 1.084809 81.000000 6 359.279113
1.096512 4.830228 1.285345 17.000000 4 359.279115
1.128936 4.969044 0.802021 72.000000 2 359.279118
1.126463 4.954157 0.298622 111.000000 0 359.279120
0.019934 0.045382 4.129117 85.000000 31 359.279131
0.235485 0.921394 6.046076 88.000000 28 359.279134
0.313129 1.219414 6.076238 76.000000 27 359.279136
0.447239 1.896850 6.273652 7.000000 25 359.279139
0.339961 1.478510 3.633611 10.000000 23 359.279141
0.436226 1.898638 3.635919 7.000000 21 359.279144
0.424854 1.849133 2.859213 6.000000 19 359.279146
0.523767 2.279617 2.876055 7.000000 17 359.279149
0.070956 0.231056 4.007691 87.000000 30 359.279157
0.115177 0.410516 3.927228 72.000000 29 359.279159
0.379900 1.561573 6.220704 6.000000 26 359.279162
0.519602 2.241817 6.312186 7.000000 24 359.279164
0.388242 1.677732 3.622924 7.000000 22 359.279167
0.388749 1.681236 2.892723 6.000000 20 359.279170
0.473867 2.049325 2.858992 8.000000 18 359.279172
0.634951 2.745935 3.133631 75.000000 16 359.279175
0.460022 2.013442 2.109384 2.000000 15 359.279132
0.483646 2.116826 1.832599 9.000000 13 359.279135
0.485165 2.121767 1.511608 7.000000 11 359.279138
0.529638 2.316249 1.329778 2.000000 9 359.279140
0.636202 2.780046 1.240566 76.000000 7 359.279143
0.658738 2.876211 0.956698 11.000000 5 359.279145
1.110913 4.850514 1.036216 16.000000 3 359.279148
1.132622 4.941336 0.547173 103.000000 1 359.279150
0.481512 2.092355 1.992758 8.000000 14 359.279158
0.484652 2.105988 1.657088 8.000000 12 359.279161
0.498722 2.165397 1.390872 17.000000 10 359.279163
0.646059 2.805099 1.418141 86.000000 8 359.279166
0.643978 2.793835 1.086452 81.000000 6 359.279168
1.105718 4.793218 1.277138 17.000000 4 359.279171
1.131793 4.902344 0.793053 20.000000 2 359.279173
1.144875 4.955062 0.298824 112.000000 0 359.279176
0.020093 0.045312 4.129117 85.000000 31 359.279187
0.238700 0.920567 6.046076 87.000000 28 359.279189
0.317384 1.218313 6.076238 85.000000 27 359.279192
0.453858 1.895277 6.273652 7.000000 25 359.279194
0.344676 1.475412 3.629009 10.000000 23 359.279197
0.442850 1.897103 3.635919 7.000000 21 359.279199
0.431306 1.847639 2.859213 7.000000 19 359.279202
0.531721 2.277775 2.876055 7.000000 17 359.279205
0.071763 0.230807 4.007691 86.000000 30 359.279212
0.116609 0.410112 3.927228 73.000000 29 359.279215
0.385650 1.561459 6.225543 9.000000 26 359.279217
0.525446 2.231591 6.288722 8.000000 24 359.279220
0.394096 1.676367 3.622924 7.000000 22 359.279223
0.391633 1.667174 2.871393 8.000000 20 359.279225
0.481018 2.047659 2.858992 8.000000 18 359.279228
0.644532 2.743702 3.133631 72.000000 16 359.279230
0.457370 1.970137 2.067329 4.000000 15 359.279188
0.491032 2.115125 1.832599 10.000000 13 359.279190
0.491622 2.115988 1.508867 7.000000 11 359.279193
0.526692 2.266918 1.304280 4.000000 9 359.279196
0.646952 2.782323 1.242439 76.000000 7 359.279198
0.669861 2.878567 0.958107 11.000000 5 359.279201
1.125611 4.837038 1.034351 15.000000 3 359.279203
1.149864 4.937352 0.547173 37.000000 1 359.279206
0.488813 2.090661 1.992758 8.000000 14 359.279214
0.491080 2.100347 1.654145 8.000000 12 359.279216
0.505295 2.159445 1.388340 16.000000 10 359.279219
0.656880 2.807246 1.420239 86.000000 8 359.279221
0.653726 2.791570 1.086452 81.000000 6 359.279224
1.109133 4.732540 1.263070 16.000000 4 359.279226
1.137590 4.850150 0.786155 17.000000 2 359.279229
1.161022 4.946172 0.298622 113.000000 0 359.279232
0.020251 0.045242 4.129117 85.000000 31 359.279242
0.242110 0.920479 6.051015 88.000000 28 359.279245
0.321635 1.217198 6.076238 85.000000 27 359.279247
0.460471 1.893682 6.273652 9.000000 25 359.279250
0.349824 1.474200 3.629009 13.000000 23 359.279252
0.450023 1.897877 3.640308 7.000000 21 359.279255
0.438402 1.848860 2.863346 7.000000 19 359.279258
0.539669 2.275905 2.876055 7.000000 17 359.279260
0.072568 0.230555 4.007691 86.000000 30 359.279268
0.118486 0.411241 3.942142 70.000000 29 359.279270
0.391098 1.560103 6.225543 8.000000 26 359.279273
0.532430 2.226387 6.279336 6.000000 24 359.279276
0.399439 1.672863 3.618423 7.000000 22 359.279278
0.396845 1.663260 2.867127 12.000000 20 359.279281
0.488162 2.045967 2.858992 8.000000 18 359.279283
0.654105 2.741435 3.133631 53.000000 16 359.279286
0.460151 1.951174 2.049807 7.000000 15 359.279243
0.497519 2.109609 1.829461 7.000000 13 359.279246
0.498045 2.110189 1.506125 7.000000 11 359.279249
0.525442 2.226260 1.283418 6.000000 9 359.279251
0.656660 2.780048 1.242439 75.000000 7 359.279254
0.681009 2.880880 0.959516 11.000000 5 359.279256
1.131188 4.785274 1.025025 14.000000 3 359.279259
1.155626 4.884846 0.542711 19.000000 1 359.279261
0.495244 2.085309 1.989434 8.000000 14 359.279269
0.498409 2.098620 1.654145 8.000000 12 359.279272
0.515821 2.170252 1.395937 16.000000 10 359.279274
0.667725 2.809352 1.422337 85.000000 8 359.279277
0.664560 2.793866 1.088094 81.000000 6 359.279279
1.112139 4.671897 1.249003 16.000000 4 359.279282
1.145332 4.807611 0.780637 16.000000 2 359.279284
1.178281 4.942089 0.298622 36.000000 0 359.279287
0.020408 0.045171 4.129117 86.000000 31 359.279298
0.245321 0.919629 6.051015 88.000000 28 359.279300
0.325882 1.216068 6.076238 83.000000 27 359.279303
0.467078 1.892063 6.273652 6.000000 25 359.279305
0.354510 1.471070 3.624406 13.000000 23 359.279308
0.456084 1.893966 3.635919 7.000000 21 359.279310
0.444853 1.847319 2.863346 7.000000 19 359.279313
0.546859 2.270891 2.872218 7.000000 17 359.279316
0.073372 0.230301 4.007691 86.000000 30 359.279323
0.119921 0.410825 3.942142 67.000000 29 359.279326
0.396542 1.558729 6.225543 7.000000 26 359.279328
0.539384 2.221161 6.269951 6.000000 24 359.279331
0.405276 1.671458 3.618423 7.000000 22 359.279334
0.402648 1.661865 2.867127 6.000000 20 359.279336
0.495301 2.044251 2.858992 8.000000 18 359.279339
0.666066 2.749020 3.144657 29.000000 16 359.279341
0.463637 1.935683 2.035789 8.000000 15 359.279299
0.504880 2.107859 1.829461 5.000000 13 359.279302
0.505408 2.108438 1.506125 8.000000 11 359.279304
0.527014 2.198563 1.269509 8.000000 9 359.279307
0.667442 2.782247 1.244312 75.000000 7 359.279309
0.691060 2.878485 0.959516 11.000000 5 359.279312
1.135271 4.728755 1.014766 14.000000 3 359.279314
1.165690 4.851728 0.540034 17.000000 1 359.279317
0.502521 2.083567 1.989434 8.000000 14 359.279325
0.504783 2.092938 1.651202 8.000000 12 359.279327
0.516312 2.139101 1.378210 21.000000 10 359.279330
0.678592 2.811416 1.424435 85.000000 8 359.279332
0.675417 2.796119 1.089737 81.000000 6 359.279335
1.113592 4.606568 1.233763 16.000000 4 359.279337
1.151626 4.760263 0.774428 16.000000 2 359.279340
1.180242 4.874823 0.296002 24.000000 0 359.279343
0.020566 0.045099 4.129117 85.000000 31 359.279353
0.248530 0.918767 6.051015 87.000000 28 359.279356
0.330124 1.214923 6.076238 83.000000 27 359.279358
0.474043 1.891869 6.278423 6.000000 25 359.279361
0.359642 1.469824 3.624406 14.000000 23 359.279363
0.462692 1.892362 3.635919 7.000000 21 359.279366
0.450630 1.843021 2.859213 7.000000 19 359.279369
0.554783 2.268968 2.872218 7.000000 17 359.279371
0.074176 0.230043 4.007691 86.000000 30 359.279379
0.121963 0.412451 3.962028 60.000000 29 359.279381
0.401980 1.557335 6.225543 7.000000 26 359.279384
0.546721 2.217589 6.265258 10.000000 24 359.279387
0.410588 1.667919 3.613922 7.000000 22 359.279389
0.409070 1.662982 2.871393 6.000000 20 359.279392
0.501714 2.039583 2.855003 8.000000 18 359.279394
0.470391 1.934052 2.035789 6.000000 15 359.279354
0.511315 2.102302 1.826323 5.000000 13 359.279357
0.512764 2.106661 1.506125 8.000000 11 359.279360
0.529447 2.175188 1.257919 10.000000 9 359.279362
0.678247 2.784404 1.246185 75.000000 7 359.279365
0.702240 2.880716 0.960925 11.000000 5 359.279367
1.136646 4.662721 1.002642 13.000000 3 359.279370
1.176717 4.823439 0.537803 17.000000 1 359.279372
0.508902 2.078173 1.986109 7.000000 14 359.279380
0.512086 2.091163 1.651202 8.000000 12 359.279383
0.529933 2.162410 1.393405 16.000000 10 359.279385
0.689482 2.813438 1.426533 86.000000 8 359.279388
0.685173 2.793745 1.089737 81.000000 6 359.279390
1.114604 4.541286 1.218522 16.000000 4 359.279393
1.157604 4.712932 0.768220 16.000000 2 359.279396
1.196059 4.865822 0.295801 24.000000 0 359.279398
0.020723 0.045027 4.129117 85.000000 31 359.279409
0.251735 0.917893 6.051015 87.000000 28 359.279411
0.334634 1.214745 6.081133 79.000000 27 359.279414
0.480644 1.890203 6.278423 10.000000 25 359.279416
0.364771 1.468560 3.624406 8.000000 23 359.279419
0.462946 1.865158 3.587644 5.000000 21 359.279422
0.457061 1.841437 2.859213 7.000000 19 359.279424
0.561927 2.263906 2.868381 7.000000 17 359.279427
0.074978 0.229783 4.007691 86.000000 30 359.279434
0.124788 0.416623 4.006771 48.000000 29 359.279437
0.407414 1.555922 6.225543 10.000000 26 359.279440
0.554458 2.215667 6.265258 7.000000 24 359.279442
0.416407 1.666476 3.613922 7.000000 22 359.279445
0.414872 1.661543 2.871393 6.000000 20 359.279447
0.507370 2.031971 2.847024 7.000000 18 359.279450
0.476284 1.928936 2.032284 6.000000 15 359.279410
0.517717 2.096725 1.823185 6.000000 13 359.279413
0.520115 2.104858 1.506125 7.000000 11 359.279415
0.532785 2.156123 1.248647 11.000000 9 359.279418
0.687962 2.782020 1.246185 73.000000 7 359.279420
0.713444 2.882904 0.962335 11.000000 5 359.279423
1.138754 4.601504 0.991451 13.000000 3 359.279425
1.180378 4.766128 0.532894 17.000000 1 359.279428
0.516153 2.076384 1.986109 7.000000 14 359.279436
0.519382 2.089364 1.651202 8.000000 12 359.279438
0.533315 2.143812 1.383275 3.000000 10 359.279441
0.699299 2.811014 1.426533 86.000000 8 359.279443
0.696062 2.795918 1.091380 80.000000 6 359.279446
1.116348 4.480770 1.204455 15.000000 4 359.279448
1.160870 4.656006 0.760632 14.000000 2 359.279451
1.202151 4.817991 0.293987 24.000000 0 359.279454
0.020888 0.044951 4.129117 85.000000 31 359.279464
0.255307 0.917713 6.055954 88.000000 28 359.279467
0.339084 1.213510 6.081133 78.000000 27 359.279469
0.487569 1.888429 6.278423 7.000000 25 359.279472
0.370151 1.467213 3.624406 8.000000 23 359.279474
0.449867 1.784465 3.438430 4.000000 21 359.279477
0.463119 1.837021 2.855080 7.000000 19 359.279479
0.568654 2.255614 2.860707 7.000000 17 359.279482
0.075820 0.229506 4.007691 86.000000 30 359.279490
0.124755 0.411057 3.957056 17.000000 29 359.279492
0.413114 1.554418 6.225543 8.000000 26 359.279495
0.563000 2.215292 6.269951 6.000000 24 359.279497
0.422513 1.664938 3.613922 7.000000 22 359.279500
0.421600 1.662540 2.875659 6.000000 20 359.279502
0.510369 2.012569 2.823087 6.000000 18 359.279505
0.482483 1.923719 2.028780 7.000000 15 359.279465
0.525398 2.094813 1.823185 7.000000 13 359.279468
0.527826 2.102938 1.506125 7.000000 11 359.279470
0.541763 2.158453 1.250965 6.000000 9 359.279473
0.699284 2.783976 1.248058 77.000000 7 359.279476
0.724006 2.880270 0.962335 10.000000 5 359.279478
1.141242 4.540131 0.980259 12.000000 3 359.279481
1.182045 4.698985 0.527094 17.000000 1 359.279483
0.522846 2.070858 1.982784 7.000000 14 359.279491
0.527037 2.087446 1.651202 8.000000 12 359.279494
0.526383 2.083325 1.347821 2.000000 10 359.279496
0.709597 2.808432 1.426533 86.000000 8 359.279499
0.706304 2.793349 1.091380 81.000000 6 359.279501
1.117263 4.415391 1.189215 15.000000 4 359.279504
1.163340 4.594111 0.752354 14.000000 2 359.279506
1.206302 4.760282 0.291770 23.000000 0 359.279509
0.021045 0.044878 4.129117 86.000000 31 359.279520
0.258508 0.916816 6.055954 88.000000 28 359.279522
0.343596 1.213299 6.086028 71.000000 27 359.279525
0.493779 1.885271 6.273652 6.000000 25 359.279527
0.375755 1.467804 3.629009 6.000000 23 359.279530
0.418685 1.636660 3.161944 4.000000 21 359.279532
0.468134 1.829941 2.846814 7.000000 19 359.279535
0.580496 2.269145 2.879892 6.000000 17 359.279537
0.076714 0.229515 4.012682 86.000000 30 359.279545
0.418538 1.552967 6.225543 6.000000 26 359.279550
0.571161 2.214985 6.274643 8.000000 24 359.279553
0.428865 1.665562 3.618423 7.000000 22 359.279555
0.426751 1.658532 2.871393 6.000000 20 359.279558
0.512885 1.993261 2.799150 4.000000 18 359.279561
0.453951 1.764217 2.053133 3.000000 16 359.279563
0.489195 1.922023 2.028780 7.000000 15 359.279521
0.531747 2.089194 1.820048 7.000000 13 359.279523
0.535163 2.101083 1.506125 7.000000 11 359.279526
0.550387 2.160841 1.253283 5.000000 9 359.279528
0.710142 2.786010 1.249931 77.000000 7 359.279531
0.735241 2.882374 0.963744 10.000000 5 359.279534
1.141299 4.474242 0.968135 13.000000 3 359.279536
1.183659 4.636927 0.521739 15.000000 1 359.279539
0.530071 2.069020 1.982784 7.000000 14 359.279546
0.534320 2.085593 1.651202 8.000000 12 359.279549
0.524016 2.043889 1.325029 2.000000 10 359.279552
0.719396 2.805938 1.426533 86.000000 8 359.279554
0.717224 2.795440 1.093022 82.000000 6 359.279557
1.116955 4.350262 1.173974 14.000000 4 359.279559
1.163348 4.527670 0.743387 14.000000 2 359.279562
1.210470 4.707656 0.289755 19.000000 0 359.279564
0.021202 0.044804 4.129117 86.000000 31 359.279575
0.261707 0.915908 6.055954 88.000000 28 359.279578
0.349516 1.217964 6.115400 56.000000 27 359.279580
0.500357 1.883536 6.273652 9.000000 25 359.279583
0.380876 1.466484 3.629009 5.000000 23 359.279585
0.392496 1.512286 2.929345 6.000000 21 359.279588
0.474519 1.828295 2.846814 7.000000 19 359.279590
0.588414 2.267104 2.879892 6.000000 17 359.279593
0.077514 0.229245 4.012682 86.000000 30 359.279601
0.194766 0.624695 6.050020 71.000000 29 359.279603
0.423956 1.551497 6.225543 6.000000 26 359.279606
0.579326 2.214647 6.279336 8.000000 24 359.279608
0.434676 1.664055 3.618423 7.000000 22 359.279611
0.432538 1.657032 2.871393 6.000000 20 359.279614
0.516033 1.976878 2.779202 4.000000 18 359.279616
0.459250 1.759341 2.049458 6.000000 16 359.279619
0.495010 1.916850 2.025275 7.000000 15 359.279576
0.539036 2.087325 1.820048 7.000000 13 359.279579
0.542494 2.099202 1.506125 7.000000 11 359.279581
0.557927 2.158907 1.253283 5.000000 9 359.279584
0.721024 2.788003 1.251804 77.000000 7 359.279587
0.745298 2.879790 0.963744 11.000000 5 359.279589
1.142141 4.413164 0.956944 14.000000 3 359.279592
1.183606 4.570094 0.515938 13.000000 1 359.279594
0.537290 2.067157 1.982784 8.000000 14 359.279602
0.541597 2.083715 1.651202 8.000000 12 359.279605
0.520294 2.000323 1.299705 2.000000 10 359.279607
0.730328 2.807802 1.428631 86.000000 8 359.279610
0.726978 2.792920 1.093022 81.000000 6 359.279612
1.117430 4.289892 1.159907 16.000000 4 359.279615
1.162906 4.461285 0.734419 14.000000 2 359.279617
1.209241 4.635724 0.286934 18.000000 0 359.279620
0.021358 0.044730 4.129117 85.000000 31 359.279631
0.264903 0.914989 6.055954 88.000000 28 359.279633
0.352911 1.213803 6.100714 20.000000 27 359.279636
0.506540 1.880335 6.268880 7.000000 25 359.279638
0.386491 1.467035 3.633611 4.000000 23 359.279641
0.395943 1.503956 2.916179 10.000000 21 359.279643
0.482331 1.832070 2.855080 7.000000 19 359.279646
0.078314 0.228973 4.012682 86.000000 30 359.279656
0.196623 0.622993 6.040078 81.000000 29 359.279659
0.429369 1.550007 6.225543 10.000000 26 359.279661
0.587053 2.212611 6.279336 8.000000 24 359.279664
0.440482 1.662527 3.618423 7.000000 22 359.279666
0.437652 1.652992 2.867127 7.000000 20 359.279669
0.518302 1.957583 2.755265 5.000000 18 359.279672
0.463653 1.751173 2.042107 10.000000 16 359.279674
0.501698 1.915111 2.025275 7.000000 15 359.279632
0.545333 2.081665 1.816910 7.000000 13 359.279634
0.550879 2.101340 1.508867 8.000000 11 359.279637
0.565459 2.156946 1.253283 6.000000 9 359.279640
0.730751 2.785469 1.251804 77.000000 7 359.279642
0.756564 2.881811 0.965153 11.000000 5 359.279645
1.142570 4.352135 0.945752 14.000000 3 359.279647
1.183101 4.503318 0.510138 14.000000 1 359.279650
0.543551 2.061658 1.979459 7.000000 14 359.279658
0.547837 2.077904 1.648259 8.000000 12 359.279660
0.520675 1.973484 1.284510 4.000000 10 359.279663
0.740125 2.805236 1.428631 86.000000 8 359.279665
0.737928 2.794931 1.094665 81.000000 6 359.279668
1.112532 4.210775 1.141149 15.000000 4 359.279670
1.163282 4.399746 0.726141 14.000000 2 359.279673
1.210081 4.573518 0.284515 18.000000 0 359.279675
0.021514 0.044655 4.129117 85.000000 31 359.279686
0.268095 0.914059 6.055954 87.000000 28 359.279689
0.513101 1.878556 6.268880 7.000000 25 359.279694
0.392113 1.467564 3.638214 4.000000 23 359.279696
0.399336 1.495620 2.903013 8.000000 21 359.279699
0.490175 1.835813 2.863346 7.000000 19 359.279701
0.534755 2.002760 2.557589 9.000000 17 359.279704
0.079113 0.228699 4.012682 86.000000 30 359.279712
0.199122 0.623320 6.050020 83.000000 29 359.279714
0.435117 1.549710 6.230382 8.000000 26 359.279717
0.595221 2.212215 6.284029 8.000000 24 359.279719
0.446848 1.663083 3.622924 7.000000 22 359.279722
0.442067 1.646416 2.858595 7.000000 20 359.279725
0.521224 1.941208 2.735318 5.000000 18 359.279727
0.469763 1.749544 2.042107 10.000000 16 359.279730
0.507464 1.909901 2.021770 7.000000 15 359.279687
0.552596 2.079748 1.816910 7.000000 13 359.279690
0.554987 2.087281 1.500642 8.000000 11 359.279692
0.572985 2.154959 1.253283 7.000000 9 359.279695
0.741662 2.787381 1.253677 77.000000 7 359.279698
0.767853 2.883788 0.966562 11.000000 5 359.279700
1.142588 4.291158 0.934561 13.000000 3 359.279703
1.183427 4.441415 0.504783 13.000000 1 359.279705
0.550744 2.059748 1.979459 7.000000 14 359.279713
0.555087 2.075979 1.648259 8.000000 12 359.279716
0.523103 1.954995 1.274381 5.000000 10 359.279718
0.751086 2.807019 1.430729 85.000000 8 359.279721
