# .PCD v.7 - Point Cloud Data file format
VERSION .7
FIELDS x y z normal_x normal_y normal_z
SIZE 4 4 4 4 2 4
TYPE F F F F U F
COUNT 1 1 1 1 1 1
WIDTH 947
HEIGHT 1
VIEWPOINT 0 0 0 1 0 0 0
POINTS 947
DATA ascii
0.131727 2.732607 2.768239 58.000000 15 396.575188
0.132482 2.748219 2.300128 55.000000 13 396.575191
0.133672 2.762880 1.898155 68.000000 11 396.575193
0.133878 2.767083 1.536083 71.000000 9 396.575196
0.134721 2.774469 1.210598 74.000000 7 396.575199
0.135917 2.789062 0.910194 37.000000 5 396.575201
0.239342 4.911329 1.025025 99.000000 3 396.575204
0.240829 4.924153 0.534679 99.000000 1 396.575206
0.136083 2.733687 2.518085 60.000000 14 396.575214
0.136385 2.739691 2.080903 64.000000 12 396.575217
0.137756 2.757553 1.707426 73.000000 10 396.575219
0.138869 2.779762 1.374082 79.000000 8 396.575222
0.140006 2.792749 1.061811 83.000000 6 396.575224
0.177063 3.519650 0.940683 6.000000 4 396.575227
0.248425 4.921033 0.778567 100.000000 2 396.575229
0.250216 4.939386 0.293181 108.000000 0 396.575232
0.007559 0.035254 2.574176 87.000000 31 396.575243
0.074062 0.956695 6.100408 14.000000 28 396.575245
0.098355 1.252064 6.061552 85.000000 27 396.575248
0.113504 1.935081 6.240250 8.000000 25 396.575250
0.138663 2.611367 6.220230 7.000000 23 396.575253
0.240993 4.553109 8.419559 97.000000 21 396.575255
0.142521 2.692727 4.032970 40.000000 19 396.575258
0.143624 2.713513 3.328814 52.000000 17 396.575260
0.019349 0.157127 2.570108 88.000000 30 396.575268
0.027980 0.279745 2.575004 89.000000 29 396.575271
0.105235 1.599890 6.206186 7.000000 26 396.575273
0.124423 2.268500 6.232409 7.000000 24 396.575276
0.162100 2.974202 6.219905 7.000000 22 396.575278
0.146482 2.696184 3.648913 47.000000 18 396.575284
0.147565 2.716069 3.027051 63.000000 16 396.575286
0.141265 2.732131 2.768239 58.000000 15 396.575244
0.142074 2.747740 2.300128 55.000000 13 396.575246
0.143316 2.762396 1.898155 66.000000 11 396.575249
0.143536 2.766599 1.536083 71.000000 9 396.575252
0.144405 2.773982 1.210598 74.000000 7 396.575254
0.145652 2.788570 0.910194 35.000000 5 396.575257
0.256741 4.915369 1.025958 99.000000 3 396.575259
0.258016 4.923283 0.534679 99.000000 1 396.575262
0.145625 2.733196 2.518085 60.000000 14 396.575270
0.145947 2.739198 2.080903 62.000000 12 396.575272
0.147381 2.757056 1.707426 73.000000 10 396.575275
0.148571 2.779260 1.374082 79.000000 8 396.575277
0.149754 2.792243 1.061811 83.000000 6 396.575280
0.189609 3.523864 0.941856 6.000000 4 396.575282
0.265601 4.920135 0.778567 100.000000 2 396.575285
0.267456 4.938482 0.293181 108.000000 0 396.575287
0.007682 0.035228 2.574176 87.000000 31 396.575298
0.077464 0.957205 6.105347 15.000000 28 396.575301
0.102725 1.251713 6.061552 85.000000 27 396.575303
0.120258 1.934673 6.240250 6.000000 25 396.575306
0.147778 2.610867 6.220230 7.000000 23 396.575308
0.256885 4.552240 8.419559 96.000000 21 396.575311
0.151919 2.692213 4.032970 40.000000 19 396.575313
0.153095 2.712995 3.328814 52.000000 17 396.575316
0.019897 0.157058 2.570108 91.000000 30 396.575324
0.028957 0.279646 2.575004 87.000000 29 396.575326
0.110819 1.599513 6.206186 12.000000 26 396.575329
0.132341 2.268051 6.232409 7.000000 24 396.575331
0.172481 2.973618 6.219905 7.000000 22 396.575334
0.155892 2.695657 3.648913 48.000000 18 396.575339
0.157045 2.715538 3.027051 62.000000 16 396.575342
0.150997 2.735182 2.771743 58.000000 15 396.575299
0.151665 2.747227 2.300128 55.000000 13 396.575302
0.152957 2.761879 1.898155 69.000000 11 396.575304
0.153438 2.770504 1.538401 71.000000 9 396.575307
0.154087 2.773461 1.210598 74.000000 7 396.575310
0.155652 2.792835 0.911603 33.000000 5 396.575312
0.273897 4.914443 1.025958 99.000000 3 396.575315
0.275478 4.927324 0.535125 99.000000 1 396.575317
0.155165 2.732671 2.518085 60.000000 14 396.575325
0.155508 2.738672 2.080903 64.000000 12 396.575328
0.157004 2.756524 1.707426 74.000000 10 396.575330
0.158271 2.778724 1.374082 79.000000 8 396.575333
0.159499 2.791703 1.061811 83.000000 6 396.575335
0.202187 3.528033 0.943028 6.000000 4 396.575338
0.282774 4.919178 0.778567 101.000000 2 396.575340
0.284693 4.937519 0.293181 108.000000 0 396.575343
0.007791 0.035160 2.569176 86.000000 31 396.575354
0.080804 0.956929 6.105347 14.000000 28 396.575356
0.107093 1.251347 6.061552 86.000000 27 396.575359
0.127010 1.934242 6.240250 6.000000 25 396.575361
0.157008 2.612285 6.224833 6.000000 23 396.575364
0.272774 4.551316 8.419559 96.000000 21 396.575366
0.161316 2.691666 4.032970 35.000000 19 396.575369
0.162564 2.712444 3.328814 53.000000 17 396.575372
0.020445 0.156988 2.570108 91.000000 30 396.575379
0.029933 0.279543 2.575004 89.000000 29 396.575382
0.116402 1.599116 6.206186 7.000000 26 396.575384
0.140257 2.267576 6.232409 10.000000 24 396.575387
0.182860 2.972998 6.219905 7.000000 22 396.575390
0.165301 2.695096 3.648913 48.000000 18 396.575395
0.166523 2.714973 3.027051 62.000000 16 396.575397
0.160544 2.734638 2.771743 58.000000 15 396.575355
0.161254 2.746681 2.300128 55.000000 13 396.575357
0.162597 2.761328 1.898155 70.000000 11 396.575360
0.163107 2.769952 1.538401 71.000000 9 396.575363
0.163767 2.772906 1.210598 74.000000 7 396.575365
0.165400 2.792274 0.911603 31.000000 5 396.575368
0.291050 4.913457 1.025958 99.000000 3 396.575370
0.292675 4.926332 0.535125 99.000000 1 396.575373
0.164927 2.735840 2.521409 60.000000 14 396.575381
0.165067 2.738112 2.080903 66.000000 12 396.575383
0.166886 2.760262 1.709958 74.000000 10 396.575386
0.167970 2.778155 1.374082 78.000000 8 396.575388
0.169243 2.791130 1.061811 83.000000 6 396.575391
0.214796 3.532158 0.944200 6.000000 4 396.575393
0.299943 4.918162 0.778567 100.000000 2 396.575396
0.302231 4.941482 0.293383 108.000000 0 396.575398
0.007914 0.035132 2.569176 86.000000 31 396.575409
0.084144 0.956641 6.105347 13.000000 28 396.575412
0.111461 1.250965 6.061552 87.000000 27 396.575414
0.133761 1.933787 6.240250 7.000000 25 396.575417
0.166250 2.613671 6.229435 7.000000 23 396.575419
0.288659 4.550335 8.419559 96.000000 21 396.575422
0.171067 2.696703 4.041236 20.000000 19 396.575424
0.172234 2.715060 3.332651 53.000000 17 396.575427
0.020993 0.156915 2.570108 89.000000 30 396.575435
0.030908 0.279437 2.575004 89.000000 29 396.575437
0.121887 1.597446 6.201347 6.000000 26 396.575440
0.148171 2.267072 6.232409 7.000000 24 396.575442
0.193519 2.976688 6.228907 7.000000 22 396.575445
0.174708 2.694503 3.648913 40.000000 18 396.575450
0.175999 2.714375 3.027051 62.000000 16 396.575453
0.170089 2.734061 2.771743 58.000000 15 396.575410
0.171082 2.749986 2.303265 55.000000 13 396.575413
0.172235 2.760744 1.898155 69.000000 11 396.575416
0.172775 2.769366 1.538401 71.000000 9 396.575418
0.173445 2.772317 1.210598 74.000000 7 396.575421
0.175446 2.796468 0.913013 29.000000 5 396.575423
0.308507 4.917314 1.026890 99.000000 3 396.575426
0.309870 4.925281 0.535125 99.000000 1 396.575428
0.174476 2.735248 2.521409 60.000000 14 396.575436
0.174881 2.741553 2.083847 64.000000 12 396.575439
0.176520 2.759663 1.709958 74.000000 10 396.575441
0.177956 2.782081 1.376180 78.000000 8 396.575444
0.178985 2.790522 1.061811 83.000000 6 396.575446
0.227748 3.541088 0.946545 6.000000 4 396.575449
0.317109 4.917085 0.778567 100.000000 2 396.575451
0.319479 4.940397 0.293383 108.000000 0 396.575454
0.008036 0.035104 2.569176 86.000000 31 396.575465
0.087483 0.956341 6.105347 13.000000 28 396.575467
0.115827 1.250569 6.061552 87.000000 27 396.575470
0.140619 1.934797 6.245021 8.000000 25 396.575472
0.175503 2.615024 6.234038 7.000000 23 396.575475
0.304541 4.549300 8.419559 97.000000 21 396.575477
0.181710 2.714442 3.332651 53.000000 17 396.575483
0.021541 0.156841 2.570108 86.000000 30 396.575490
0.031883 0.279327 2.575004 90.000000 29 396.575493
0.127463 1.597010 6.201347 8.000000 26 396.575495
0.156084 2.266541 6.232409 7.000000 24 396.575498
0.204057 2.978167 6.233407 8.000000 22 396.575501
0.184112 2.693877 3.648913 35.000000 18 396.575506
0.185704 2.717126 3.030726 62.000000 16 396.575508
0.179631 2.733451 2.771743 58.000000 15 396.575466
0.180680 2.749372 2.303265 55.000000 13 396.575468
0.181871 2.760126 1.898155 69.000000 11 396.575471
0.182441 2.768746 1.538401 71.000000 9 396.575474
0.183427 2.776321 1.212471 75.000000 7 396.575476
0.185841 2.805412 0.915831 27.000000 5 396.575479
0.325670 4.916207 1.026890 99.000000 3 396.575481
0.327390 4.929138 0.535572 99.000000 1 396.575484
0.184023 2.734622 2.521409 58.000000 14 396.575492
0.184450 2.740926 2.083847 64.000000 12 396.575494
0.186152 2.759030 1.709958 74.000000 10 396.575497
0.187666 2.781442 1.376180 78.000000 8 396.575499
0.188725 2.789880 1.061811 83.000000 6 396.575502
0.240436 3.545120 0.947717 6.000000 4 396.575504
0.334607 4.920888 0.779257 100.000000 2 396.575507
0.336722 4.939251 0.293383 108.000000 0 396.575510
0.008159 0.035076 2.569176 86.000000 31 396.575520
0.090895 0.956804 6.110286 13.000000 28 396.575523
0.120191 1.250157 6.061552 87.000000 27 396.575525
0.147485 1.935784 6.249793 7.000000 25 396.575528
0.184630 2.614395 6.234038 9.000000 23 396.575530
0.320419 4.548209 8.419559 98.000000 21 396.575533
0.191184 2.713791 3.332651 52.000000 17 396.575538
0.022088 0.156765 2.570108 86.000000 30 396.575546
0.032858 0.279214 2.575004 90.000000 29 396.575548
0.133036 1.596556 6.201347 12.000000 26 396.575551
0.163995 2.265982 6.232409 7.000000 24 396.575554
0.214608 2.979608 6.237908 8.000000 22 396.575556
0.153758 2.139971 3.579538 3.000000 20 396.575559
0.192434 2.678186 3.628965 16.000000 18 396.575561
0.195187 2.716462 3.030726 62.000000 16 396.575564
0.189418 2.736365 2.775248 58.000000 15 396.575521
0.190545 2.752609 2.306403 55.000000 13 396.575524
0.191794 2.763645 1.900896 69.000000 11 396.575527
0.192105 2.768092 1.538401 71.000000 9 396.575529
0.193117 2.775664 1.212471 75.000000 7 396.575532
0.196300 2.814318 0.918649 22.000000 5 396.575534
0.342829 4.915040 1.026890 99.000000 3 396.575537
0.344594 4.927965 0.535572 99.000000 1 396.575539
0.193567 2.733963 2.521409 60.000000 14 396.575547
0.194016 2.740266 2.083847 64.000000 12 396.575550
0.195781 2.758364 1.709958 74.000000 10 396.575552
0.197374 2.780771 1.376180 78.000000 8 396.575555
0.198797 2.793915 1.063454 82.000000 6 396.575557
0.253501 3.553956 0.950062 6.000000 4 396.575560
0.351782 4.919691 0.779257 100.000000 2 396.575562
0.354318 4.943028 0.293584 108.000000 0 396.575565
0.008296 0.035088 2.574176 87.000000 31 396.575576
0.094310 0.957254 6.115226 12.000000 28 396.575578
0.124554 1.249730 6.061552 86.000000 27 396.575581
0.154360 1.936746 6.254565 6.000000 25 396.575583
0.193321 2.607890 6.220230 7.000000 23 396.575586
0.336294 4.547063 8.419559 103.000000 21 396.575588
0.200893 2.716305 3.336488 53.000000 17 396.575594
0.022635 0.156687 2.570108 89.000000 30 396.575601
0.033833 0.279098 2.575004 90.000000 29 396.575604
0.138609 1.596082 6.201347 6.000000 26 396.575606
0.172034 2.267117 6.237102 7.000000 24 396.575609
0.225008 2.978841 6.237908 8.000000 22 396.575612
0.161227 2.139422 3.579538 4.000000 20 396.575614
0.204923 2.719145 3.034402 62.000000 16 396.575619
0.198968 2.735687 2.775248 58.000000 15 396.575577
0.200152 2.751926 2.306403 55.000000 13 396.575580
0.201439 2.762959 1.900896 69.000000 11 396.575582
0.201766 2.767405 1.538401 71.000000 9 396.575585
0.203143 2.779597 1.214344 75.000000 7 396.575587
0.206473 2.818400 0.920059 22.000000 5 396.575590
0.359983 4.913814 1.026890 99.000000 3 396.575592
0.361794 4.926732 0.535572 98.000000 1 396.575595
0.203109 2.733271 2.521409 60.000000 14 396.575603
0.203580 2.739572 2.083847 62.000000 12 396.575605
0.205409 2.757663 1.709958 74.000000 10 396.575608
0.207417 2.784591 1.378278 78.000000 8 396.575610
0.208549 2.793204 1.063454 83.000000 6 396.575613
0.266268 3.557897 0.951234 6.000000 4 396.575615
0.369323 4.923371 0.779947 101.000000 2 396.575618
0.371570 4.941761 0.293584 108.000000 0 396.575621
0.008418 0.035059 2.574176 87.000000 31 396.575631
0.097730 0.957692 6.120165 12.000000 28 396.575634
0.128916 1.249287 6.061552 86.000000 27 396.575636
0.161368 1.939172 6.264108 9.000000 25 396.575639
0.202272 2.605251 6.215627 7.000000 23 396.575641
0.352164 4.545861 8.419559 101.000000 21 396.575644
0.210373 2.715587 3.336488 53.000000 17 396.575649
0.023182 0.156607 2.570108 91.000000 30 396.575657
0.034807 0.278978 2.575004 90.000000 29 396.575659
0.144179 1.595588 6.201347 6.000000 26 396.575662
0.180083 2.268223 6.241794 8.000000 24 396.575665
0.235576 2.980209 6.242410 8.000000 22 396.575667
0.168283 2.133646 3.571006 5.000000 20 396.575670
0.174629 2.214066 3.014583 5.000000 18 396.575672
0.214413 2.718413 3.034402 62.000000 16 396.575675
0.208517 2.734976 2.775248 58.000000 15 396.575632
0.209757 2.751211 2.306403 55.000000 13 396.575635
0.211083 2.762239 1.900896 70.000000 11 396.575638
0.211425 2.766684 1.538401 70.000000 9 396.575640
0.212844 2.778870 1.214344 75.000000 7 396.575643
0.217044 2.827228 0.922877 21.000000 5 396.575645
0.377133 4.912527 1.026890 99.000000 3 396.575648
0.378989 4.925439 0.535572 98.000000 1 396.575650
0.212939 2.736268 2.524734 60.000000 14 396.575658
0.213455 2.742874 2.086790 62.000000 12 396.575661
0.215033 2.756930 1.709958 74.000000 10 396.575663
0.217136 2.783850 1.378278 78.000000 8 396.575666
0.218298 2.792459 1.063454 83.000000 6 396.575668
0.278686 3.556946 0.951234 6.000000 4 396.575671
0.386507 4.922051 0.779947 101.000000 2 396.575674
0.388818 4.940434 0.293584 108.000000 0 396.575676
0.008540 0.035030 2.574176 87.000000 31 396.575687
0.101155 0.958117 6.125104 11.000000 28 396.575689
0.133276 1.248829 6.061552 87.000000 27 396.575692
0.168652 1.944549 6.283195 6.000000 25 396.575694
0.210575 2.594794 6.192615 6.000000 23 396.575697
0.368030 4.544605 8.419559 101.000000 21 396.575700
0.174719 2.157582 3.251843 3.000000 19 396.575702
0.219851 2.714836 3.336488 54.000000 17 396.575705
0.023728 0.156525 2.570108 88.000000 30 396.575712
0.035780 0.278855 2.575004 89.000000 29 396.575715
0.149748 1.595075 6.201347 9.000000 26 396.575718
0.188000 2.267581 6.241794 6.000000 24 396.575720
0.245798 2.977198 6.237908 8.000000 22 396.575723
0.175516 2.130446 3.566740 5.000000 20 396.575725
0.182357 2.213443 3.014583 8.000000 18 396.575728
0.223901 2.717648 3.034402 62.000000 16 396.575730
0.218346 2.737786 2.778752 58.000000 15 396.575688
0.219359 2.750462 2.306403 55.000000 13 396.575691
0.220723 2.761485 1.900896 69.000000 11 396.575693
0.221434 2.770345 1.540719 71.000000 9 396.575696
0.222543 2.778111 1.214344 75.000000 7 396.575698
0.227296 2.831236 0.924286 19.000000 5 396.575701
0.394279 4.911180 1.026890 98.000000 3 396.575703
0.396579 4.929051 0.536018 98.000000 1 396.575706
0.222489 2.735508 2.524734 60.000000 14 396.575714
0.223029 2.742112 2.086790 62.000000 12 396.575716
0.224656 2.756162 1.709958 74.000000 10 396.575719
0.226852 2.783075 1.378278 78.000000 8 396.575721
0.228428 2.796387 1.065097 83.000000 6 396.575724
0.290307 3.546263 0.948889 6.000000 4 396.575726
0.404091 4.925608 0.780637 100.000000 2 396.575729
0.406470 4.944027 0.293786 108.000000 0 396.575732
0.008648 0.034959 2.569176 87.000000 31 396.575743
0.104668 0.959303 6.134983 11.000000 28 396.575746
0.137634 1.248357 6.061552 86.000000 27 396.575748
0.175170 1.940974 6.273652 6.000000 25 396.575751
0.219961 2.597936 6.201820 6.000000 23 396.575753
0.384698 4.552841 8.437115 86.000000 21 396.575756
0.181539 2.148547 3.239444 5.000000 19 396.575758
0.229596 2.717247 3.340325 51.000000 17 396.575761
0.024275 0.156441 2.570108 88.000000 30 396.575769
0.036754 0.278728 2.575004 90.000000 29 396.575771
0.155437 1.595795 6.206186 11.000000 26 396.575774
0.195914 2.266910 6.241794 6.000000 24 396.575776
0.256189 2.976321 6.237908 8.000000 22 396.575779
0.181835 2.116828 3.545411 5.000000 20 396.575781
0.191114 2.224805 3.030541 8.000000 18 396.575784
0.233386 2.716850 3.034402 63.000000 16 396.575787
0.227901 2.737008 2.778752 58.000000 15 396.575744
0.229282 2.753559 2.309541 57.000000 13 396.575747
0.230362 2.760698 1.900896 69.000000 11 396.575749
0.231103 2.769555 1.540719 70.000000 9 396.575752
0.232239 2.777317 1.214344 75.000000 7 396.575755
0.237177 2.830425 0.924286 17.000000 5 396.575757
0.411830 4.914670 1.027823 98.000000 3 396.575760
0.413783 4.927637 0.536018 96.000000 1 396.575762
0.232352 2.738436 2.528059 60.000000 14 396.575770
0.232599 2.741317 2.086790 64.000000 12 396.575773
0.234275 2.755361 1.709958 75.000000 10 396.575775
0.236565 2.782266 1.378278 78.000000 8 396.575778
0.238188 2.795572 1.065097 83.000000 6 396.575780
0.405643 4.751136 1.240796 18.000000 4 396.575783
0.421282 4.924168 0.780637 100.000000 2 396.575785
0.423726 4.942578 0.293786 108.000000 0 396.575788
0.008770 0.034928 2.569176 78.000000 31 396.575799
0.108103 0.959704 6.139922 10.000000 28 396.575801
0.141991 1.247869 6.061552 85.000000 27 396.575804
0.181526 1.935889 6.259336 11.000000 25 396.575806
0.229543 2.602990 6.215627 8.000000 23 396.575809
0.399958 4.544311 8.423948 29.000000 21 396.575811
0.188544 2.142294 3.231178 6.000000 19 396.575814
0.239080 2.716429 3.340325 51.000000 17 396.575816
0.024820 0.156356 2.570108 86.000000 30 396.575824
0.037726 0.278598 2.575004 90.000000 29 396.575827
0.161006 1.595242 6.206186 6.000000 26 396.575829
0.203826 2.266213 6.241794 10.000000 24 396.575832
0.266577 2.975409 6.237908 8.000000 22 396.575834
0.188527 2.108387 3.532613 5.000000 20 396.575837
0.198342 2.218120 3.022562 8.000000 18 396.575840
0.242868 2.716018 3.034402 61.000000 16 396.575842
0.237454 2.736195 2.778752 60.000000 15 396.575800
0.238892 2.752742 2.309541 57.000000 13 396.575802
0.240359 2.764043 1.903638 69.000000 11 396.575805
0.241153 2.773145 1.543037 70.000000 9 396.575807
0.241932 2.776489 1.214344 75.000000 7 396.575810
0.247473 2.834359 0.925695 16.000000 5 396.575813
0.428983 4.913202 1.027823 98.000000 3 396.575815
0.430981 4.926162 0.536018 96.000000 1 396.575818
0.241909 2.737608 2.528059 60.000000 14 396.575825
0.242167 2.740489 2.086790 62.000000 12 396.575828
0.244272 2.758821 1.712490 73.000000 10 396.575831
0.246676 2.785944 1.380376 78.000000 8 396.575833
0.247945 2.794724 1.065097 83.000000 6 396.575836
0.424807 4.778740 1.247830 20.000000 4 396.575838
0.438468 4.922667 0.780637 101.000000 2 396.575841
0.440976 4.941068 0.293786 108.000000 0 396.575843
0.008892 0.034897 2.569176 78.000000 31 396.575854
0.111542 0.960093 6.144861 10.000000 28 396.575857
0.146346 1.247365 6.061552 85.000000 27 396.575859
0.188138 1.933757 6.254565 6.000000 25 396.575862
0.238984 2.606064 6.224833 8.000000 23 396.575864
0.195764 2.138820 3.227045 6.000000 19 396.575869
0.248560 2.715577 3.340325 53.000000 17 396.575872
0.025366 0.156268 2.570108 88.000000 30 396.575880
0.038699 0.278465 2.575004 90.000000 29 396.575882
0.166705 1.595922 6.211025 6.000000 26 396.575885
0.211574 2.263769 6.237102 7.000000 24 396.575887
0.277163 2.976629 6.242410 8.000000 22 396.575890
0.195402 2.102523 3.524081 5.000000 20 396.575893
0.205804 2.214413 3.018572 8.000000 18 396.575895
0.252347 2.715154 3.034402 62.000000 16 396.575898
0.247324 2.738901 2.782257 55.000000 15 396.575855
0.248500 2.751891 2.309541 57.000000 13 396.575858
0.250006 2.763187 1.903638 68.000000 11 396.575860
0.250832 2.772286 1.543037 71.000000 9 396.575863
0.251622 2.775628 1.214344 75.000000 7 396.575866
0.257365 2.833478 0.925695 16.000000 5 396.575868
0.446575 4.916567 1.028755 98.000000 3 396.575871
0.448625 4.929587 0.536464 97.000000 1 396.575873
0.251464 2.736747 2.528059 60.000000 14 396.575881
0.251731 2.739627 2.086790 62.000000 12 396.575884
0.253900 2.757952 1.712490 73.000000 10 396.575886
0.256399 2.785066 1.380376 79.000000 8 396.575889
0.257699 2.793841 1.065097 83.000000 6 396.575891
0.443722 4.801428 1.253692 23.000000 4 396.575894
0.455648 4.921107 0.780637 101.000000 2 396.575896
0.458221 4.939498 0.293786 108.000000 0 396.575899
0.009013 0.034866 2.569176 86.000000 31 396.575910
0.114986 0.960469 6.149800 9.000000 28 396.575912
0.150822 1.247858 6.066447 86.000000 27 396.575915
0.194587 1.930117 6.245021 5.000000 25 396.575917
0.248265 2.607159 6.229435 9.000000 23 396.575920
0.202696 2.132521 3.218779 6.000000 19 396.575925
0.258341 2.717885 3.344162 53.000000 17 396.575927
0.025911 0.156179 2.570108 88.000000 30 396.575935
0.039670 0.278328 2.575004 90.000000 29 396.575938
0.172274 1.595330 6.211025 10.000000 26 396.575940
0.219142 2.259582 6.227715 7.000000 24 396.575943
0.287552 2.975643 6.242410 8.000000 22 396.575945
0.202490 2.099232 3.519815 5.000000 20 396.575948
0.213533 2.213681 3.018572 8.000000 18 396.575951
0.261824 2.714257 3.034402 61.000000 16 396.575953
0.256883 2.738021 2.782257 53.000000 15 396.575911
0.258104 2.751007 2.309541 57.000000 13 396.575913
0.259650 2.762298 1.903638 68.000000 11 396.575916
0.260507 2.771394 1.543037 71.000000 9 396.575919
0.261310 2.774733 1.214344 75.000000 7 396.575921
0.267255 2.832562 0.925695 15.000000 5 396.575924
0.463734 4.914978 1.028755 99.000000 3 396.575926
0.465830 4.927991 0.536464 97.000000 1 396.575929
0.261015 2.735852 2.528059 60.000000 14 396.575937
0.261677 2.742755 2.089733 62.000000 12 396.575939
0.263936 2.761340 1.715023 74.000000 10 396.575942
0.266119 2.784154 1.380376 78.000000 8 396.575944
0.267450 2.792925 1.065097 82.000000 6 396.575947
0.461408 4.809526 1.256037 27.000000 4 396.575949
0.473297 4.924416 0.781327 101.000000 2 396.575952
0.475939 4.942842 0.293987 108.000000 0 396.575954
0.009135 0.034835 2.569176 86.000000 31 396.575965
0.118528 0.961604 6.159679 9.000000 28 396.575968
0.155177 1.247324 6.066447 86.000000 27 396.575970
0.201478 1.930911 6.249793 10.000000 25 396.575973
0.257556 2.608221 6.234038 7.000000 23 396.575975
0.209587 2.126200 3.210513 7.000000 19 396.575980
0.267827 2.716967 3.344162 52.000000 17 396.575983
0.026456 0.156087 2.570108 86.000000 30 396.575991
0.040642 0.278188 2.575004 92.000000 29 396.575993
0.177842 1.594719 6.211025 9.000000 26 396.575996
0.226855 2.257086 6.223023 7.000000 24 396.575998
0.298154 2.976788 6.246911 8.000000 22 396.576001
0.209557 2.095917 3.515549 5.000000 20 396.576004
0.221259 2.212923 3.018572 6.000000 18 396.576006
0.271297 2.713326 3.034402 61.000000 16 396.576009
0.266439 2.737108 2.782257 59.000000 15 396.575966
0.267705 2.750090 2.309541 50.000000 13 396.575969
0.269290 2.761374 1.903638 68.000000 11 396.575971
0.270180 2.770468 1.543037 71.000000 9 396.575974
0.271444 2.778417 1.216217 75.000000 7 396.575977
0.277140 2.831612 0.925695 14.000000 5 396.575979
0.481366 4.918219 1.029688 99.000000 3 396.575982
0.483029 4.926335 0.536464 98.000000 1 396.575984
0.270564 2.734925 2.528059 60.000000 14 396.575992
0.271249 2.741825 2.089733 62.000000 12 396.575995
0.273573 2.760402 1.715023 74.000000 10 396.575997
0.275836 2.783208 1.380376 78.000000 8 396.576000
0.277197 2.791974 1.065097 83.000000 6 396.576002
0.480118 4.827234 1.260726 27.000000 4 396.576005
0.490484 4.922733 0.781327 101.000000 2 396.576007
0.493190 4.941151 0.293987 108.000000 0 396.576010
0.009256 0.034802 2.569176 86.000000 31 396.576021
0.121982 0.961955 6.164618 8.000000 28 396.576023
0.159530 1.246774 6.066447 76.000000 27 396.576026
0.208217 1.930196 6.249793 5.000000 25 396.576028
0.266858 2.609249 6.238640 7.000000 23 396.576031
0.216436 2.119856 3.202247 8.000000 19 396.576036
0.277309 2.716015 3.344162 51.000000 17 396.576039
0.027001 0.155994 2.570108 86.000000 30 396.576046
0.041612 0.278044 2.575004 92.000000 29 396.576049
0.183552 1.595338 6.215865 7.000000 26 396.576051
0.235447 2.263146 6.241794 7.000000 24 396.576054
0.308544 2.975729 6.246911 8.000000 22 396.576057
0.216603 2.092579 3.511283 5.000000 20 396.576059
0.228672 2.209139 3.014583 6.000000 18 396.576062
0.281115 2.715735 3.038077 61.000000 16 396.576064
0.276350 2.739709 2.785762 59.000000 15 396.576022
0.277303 2.749138 2.309541 50.000000 13 396.576024
0.278928 2.760418 1.903638 68.000000 11 396.576027
0.279849 2.769508 1.543037 71.000000 9 396.576030
0.281141 2.777453 1.216217 75.000000 7 396.576032
0.287023 2.830627 0.925695 14.000000 5 396.576035
0.498531 4.916508 1.029688 99.000000 3 396.576037
0.500222 4.924619 0.536464 98.000000 1 396.576040
0.280489 2.737679 2.531384 60.000000 14 396.576048
0.280818 2.740861 2.089733 62.000000 12 396.576050
0.283207 2.759430 1.715023 75.000000 10 396.576053
0.285550 2.782228 1.380376 78.000000 8 396.576055
0.286941 2.790990 1.065097 83.000000 6 396.576058
0.498459 4.840034 1.264243 31.000000 4 396.576060
0.507664 4.920992 0.781327 101.000000 2 396.576063
0.510948 4.944369 0.294189 108.000000 0 396.576065
0.009378 0.034770 2.569176 86.000000 31 396.576076
0.125742 0.964605 6.184375 7.000000 28 396.576079
0.163881 1.246210 6.066447 76.000000 27 396.576081
0.215119 1.930942 6.254565 5.000000 25 396.576084
0.275964 2.608302 6.238640 7.000000 23 396.576086
0.478199 4.527109 8.406393 3.000000 21 396.576089
0.223538 2.116289 3.198114 10.000000 19 396.576091
0.286788 2.715031 3.344162 52.000000 17 396.576094
0.027545 0.155899 2.570108 88.000000 30 396.576102
0.042583 0.277897 2.575004 92.000000 29 396.576104
0.189119 1.594687 6.215865 6.000000 26 396.576107
0.243530 2.264026 6.246487 8.000000 24 396.576109
0.318929 2.974634 6.246911 8.000000 22 396.576112
0.223351 2.086624 3.502751 5.000000 20 396.576115
0.236382 2.208327 3.014583 6.000000 18 396.576117
0.290593 2.714737 3.038077 61.000000 16 396.576120
0.285911 2.738728 2.785762 57.000000 15 396.576077
0.287302 2.752025 2.312679 57.000000 13 396.576080
0.288562 2.759427 1.903638 66.000000 11 396.576083
0.289514 2.768514 1.543037 71.000000 9 396.576085
0.290835 2.776455 1.216217 75.000000 7 396.576088
0.297403 2.834379 0.927105 13.000000 5 396.576090
0.515690 4.914738 1.029688 99.000000 3 396.576093
0.517930 4.927796 0.536910 98.000000 1 396.576095
0.290044 2.736682 2.531384 60.000000 14 396.576103
0.290384 2.739864 2.089733 62.000000 12 396.576106
0.293293 2.762712 1.717555 74.000000 10 396.576108
0.295260 2.781214 1.380376 78.000000 8 396.576111
0.297181 2.794667 1.066740 82.000000 6 396.576113
0.517410 4.857597 1.268932 35.000000 4 396.576116
0.525364 4.924113 0.782016 101.000000 2 396.576118
0.528204 4.942555 0.294189 108.000000 0 396.576121
0.009499 0.034737 2.569176 87.000000 31 396.576132
0.129522 0.967241 6.204133 6.000000 28 396.576134
0.168093 1.244621 6.061552 85.000000 27 396.576137
0.222028 1.931663 6.259336 8.000000 25 396.576139
0.285067 2.607323 6.238640 6.000000 23 396.576142
0.489839 4.487306 8.336175 8.000000 21 396.576144
0.230619 2.112699 3.193982 10.000000 19 396.576147
0.296264 2.714013 3.344162 53.000000 17 396.576150
0.028116 0.156091 2.575099 88.000000 30 396.576157
0.043504 0.277754 2.575004 92.000000 29 396.576160
0.194406 1.594051 6.215865 11.000000 26 396.576162
0.251607 2.268351 6.260565 6.000000 24 396.576165
0.329310 2.973503 6.246911 8.000000 22 396.576168
0.230347 2.083239 3.498486 5.000000 20 396.576170
0.244089 2.207489 3.014583 6.000000 18 396.576173
0.299966 2.717128 3.041752 60.000000 16 396.576175
0.295469 2.737713 2.785762 59.000000 15 396.576133
0.296907 2.751006 2.312679 57.000000 13 396.576135
0.298641 2.762561 1.906379 66.000000 11 396.576138
0.299177 2.767486 1.543037 71.000000 9 396.576141
0.300538 2.780084 1.218090 75.000000 7 396.576143
0.306800 2.833377 0.927105 13.000000 5 396.576146
0.533372 4.917791 1.030621 99.000000 3 396.576148
0.535128 4.925958 0.536910 98.000000 1 396.576151
0.299595 2.735653 2.531384 58.000000 14 396.576159
0.299946 2.738834 2.089733 62.000000 12 396.576161
0.302453 2.761724 1.717555 73.000000 10 396.576164
0.304975 2.784732 1.382474 79.000000 8 396.576166
0.306447 2.793666 1.066740 83.000000 6 396.576169
0.535108 4.870349 1.272449 38.000000 4 396.576171
0.541690 4.922344 0.782016 101.000000 2 396.576174
0.545139 4.945742 0.294390 108.000000 0 396.576177
0.009614 0.034705 2.569176 87.000000 31 396.576187
0.133153 0.969885 6.223889 5.000000 28 396.576190
0.172220 1.244057 6.061552 85.000000 27 396.576192
0.228608 1.932399 6.264108 6.000000 25 396.576195
0.293712 2.606363 6.238640 7.000000 23 396.576197
0.498556 4.430900 8.235236 9.000000 21 396.576200
0.237309 2.109126 3.189849 7.000000 19 396.576203
0.305621 2.716201 3.347999 53.000000 17 396.576205
0.028660 0.155992 2.575099 88.000000 30 396.576213
0.044473 0.277601 2.575004 92.000000 29 396.576215
0.200126 1.594611 6.220704 9.000000 26 396.576218
0.259524 2.267459 6.260565 6.000000 24 396.576221
0.338922 2.970231 6.242410 8.000000 22 396.576223
0.236959 2.079873 3.494220 6.000000 20 396.576226
0.251408 2.206667 3.014583 6.000000 18 396.576228
0.309449 2.716064 3.041752 60.000000 16 396.576231
0.304941 2.740263 2.789266 59.000000 15 396.576188
0.306028 2.750006 2.312679 55.000000 13 396.576191
0.307801 2.761555 1.906379 69.000000 11 396.576194
0.308843 2.770882 1.545355 67.000000 9 396.576196
0.310241 2.779018 1.218090 73.000000 7 396.576199
0.317222 2.837057 0.928514 13.000000 5 396.576201
0.549677 4.915996 1.030621 98.000000 3 396.576204
0.552014 4.929105 0.537356 98.000000 1 396.576206
0.309084 2.738356 2.534708 58.000000 14 396.576214
0.309480 2.741841 2.092676 62.000000 12 396.576217
0.312091 2.760652 1.717555 74.000000 10 396.576219
0.314694 2.783650 1.382474 79.000000 8 396.576222
0.316197 2.792579 1.066740 85.000000 6 396.576224
0.554296 4.887771 1.277138 45.000000 4 396.576227
0.558869 4.920424 0.782016 101.000000 2 396.576229
0.562399 4.943809 0.294390 108.000000 0 396.576232
0.009735 0.034671 2.569176 86.000000 31 396.576243
0.136864 0.971722 6.238707 5.000000 28 396.576245
0.176561 1.243448 6.061552 86.000000 27 396.576248
0.235533 1.933072 6.268880 6.000000 25 396.576250
0.302808 2.605322 6.238640 7.000000 23 396.576253
0.509048 4.386296 8.156240 9.000000 21 396.576255
0.244345 2.105489 3.185716 7.000000 19 396.576258
0.315100 2.715117 3.347999 52.000000 17 396.576261
0.029205 0.155891 2.575099 89.000000 30 396.576268
0.045442 0.277444 2.575004 92.000000 29 396.576271
0.205691 1.593903 6.220704 8.000000 26 396.576273
0.267437 2.266540 6.260565 10.000000 24 396.576276
0.349288 2.969030 6.242410 8.000000 22 396.576279
0.243609 2.073853 3.485688 6.000000 20 396.576281
0.258757 2.202783 3.010593 6.000000 18 396.576284
0.318928 2.714968 3.041752 61.000000 16 396.576286
0.314504 2.739182 2.789266 57.000000 15 396.576244
0.315625 2.748921 2.312679 42.000000 13 396.576247
0.317916 2.764618 1.909121 69.000000 11 396.576249
0.318513 2.769787 1.545355 67.000000 9 396.576252
0.320470 2.782524 1.219963 73.000000 7 396.576254
0.327673 2.840698 0.929923 13.000000 5 396.576257
0.567397 4.918927 1.031553 99.000000 3 396.576259
0.569788 4.932096 0.537803 99.000000 1 396.576262
0.318641 2.737260 2.534708 58.000000 14 396.576270
0.319516 2.744759 2.095619 62.000000 12 396.576272
0.321726 2.759546 1.717555 74.000000 10 396.576275
0.324409 2.782535 1.382474 79.000000 8 396.576277
0.325943 2.791459 1.066740 83.000000 6 396.576280
0.572483 4.895462 1.279483 53.000000 4 396.576282
0.576617 4.923361 0.782706 100.000000 2 396.576285
0.579653 4.941815 0.294390 108.000000 0 396.576288
0.009856 0.034637 2.569176 86.000000 31 396.576298
0.140144 0.970470 6.233768 4.000000 28 396.576301
0.181048 1.243832 6.066447 86.000000 27 396.576303
0.242279 1.932238 6.268880 9.000000 25 396.576306
0.311900 2.604249 6.238640 8.000000 23 396.576308
0.517528 4.327402 8.050912 9.000000 21 396.576311
0.251025 2.099036 3.177450 7.000000 19 396.576314
0.324956 2.717185 3.351836 52.000000 17 396.576316
0.029692 0.155504 2.570108 88.000000 30 396.576324
0.046410 0.277284 2.575004 90.000000 29 396.576326
0.211088 1.591928 6.215865 7.000000 26 396.576329
0.275139 2.263879 6.255873 6.000000 24 396.576332
0.360168 2.967730 6.242410 8.000000 22 396.576334
0.250894 2.070357 3.481422 6.000000 20 396.576337
0.266466 2.198828 3.006604 6.000000 18 396.576339
0.329284 2.717146 3.045427 61.000000 16 396.576342
0.324064 2.738068 2.789266 59.000000 15 396.576299
0.322473 2.724607 2.293852 26.000000 13 396.576302
0.327565 2.763491 1.909121 68.000000 11 396.576305
0.328180 2.768659 1.545355 71.000000 9 396.576307
0.330181 2.781388 1.219963 73.000000 7 396.576310
0.338153 2.844301 0.931332 12.000000 5 396.576312
0.585422 4.916814 1.031553 99.000000 3 396.576315
0.587861 4.929974 0.537803 99.000000 1 396.576317
0.329117 2.739782 2.538033 60.000000 14 396.576325
0.329574 2.743569 2.095619 53.000000 12 396.576328
0.332353 2.762628 1.720088 74.000000 10 396.576330
0.335147 2.785833 1.384572 79.000000 8 396.576333
0.336737 2.794934 1.068382 83.000000 6 396.576335
0.592169 4.907807 1.283000 63.000000 4 396.576338
0.594658 4.921215 0.782706 100.000000 2 396.576341
0.597499 4.944723 0.294592 108.000000 0 396.576343
0.009983 0.034601 2.569176 87.000000 31 396.576354
0.144156 0.973024 6.253525 3.000000 28 396.576356
0.185605 1.243160 6.066447 87.000000 27 396.576359
0.249360 1.931337 6.268880 6.000000 25 396.576361
0.321683 2.605027 6.243243 7.000000 23 396.576364
0.527228 4.275543 7.958751 8.000000 21 396.576367
0.258372 2.095309 3.173317 7.000000 19 396.576369
0.334913 2.715975 3.351836 52.000000 17 396.576372
0.030262 0.155394 2.570108 89.000000 30 396.576379
0.047426 0.277112 2.575004 90.000000 29 396.576382
0.216922 1.591144 6.215865 12.000000 26 396.576385
0.283220 2.261143 6.251180 6.000000 24 396.576387
0.370795 2.968615 6.246911 8.000000 22 396.576390
0.257797 2.066880 3.477156 6.000000 20 396.576392
0.273767 2.194893 3.002614 7.000000 18 396.576395
0.338767 2.715980 3.045427 61.000000 16 396.576397
0.334097 2.736861 2.789266 59.000000 15 396.576355
0.337691 2.762272 1.909121 68.000000 11 396.576360
0.338325 2.767437 1.545355 71.000000 9 396.576363
0.340373 2.780159 1.219963 74.000000 7 396.576365
0.348575 2.843042 0.931332 12.000000 5 396.576368
0.603179 4.919616 1.032486 99.000000 3 396.576370
0.605673 4.932835 0.538249 99.000000 1 396.576373
0.338678 2.738616 2.538033 58.000000 14 396.576381
0.341994 2.761451 1.720088 74.000000 10 396.576386
0.344869 2.784647 1.384572 79.000000 8 396.576388
0.346491 2.793741 1.068382 83.000000 6 396.576391
0.609896 4.910533 1.284172 65.000000 4 396.576393
0.612444 4.924024 0.783396 101.000000 2 396.576396
0.615618 4.942499 0.294592 108.000000 0 396.576399
0.010104 0.034566 2.569176 87.000000 31 396.576409
0.189944 1.242505 6.066447 87.000000 27 396.576414
0.255903 1.928974 6.264108 6.000000 25 396.576417
0.330774 2.603889 6.243243 7.000000 23 396.576419
0.535817 4.223765 7.866589 8.000000 21 396.576422
0.265331 2.091602 3.169184 7.000000 19 396.576424
0.344795 2.717970 3.355673 51.000000 17 396.576427
0.030804 0.155288 2.570108 89.000000 30 396.576435
0.048393 0.276944 2.575004 90.000000 29 396.576437
0.222300 1.589131 6.211025 9.000000 26 396.576440
0.291111 2.260141 6.251180 8.000000 24 396.576442
0.381432 2.969462 6.251411 8.000000 22 396.576445
0.265010 2.065968 3.477156 6.000000 20 396.576447
0.281043 2.190935 2.998625 7.000000 18 396.576450
0.348677 2.718144 3.049102 61.000000 16 396.576453
0.344093 2.739217 2.792771 59.000000 15 396.576410
0.279370 2.223967 1.889079 4.000000 13 396.576413
0.347331 2.761076 1.909121 57.000000 11 396.576415
0.348536 2.770635 1.547673 70.000000 9 396.576418
0.350075 2.778954 1.219963 75.000000 7 396.576421
0.359098 2.846568 0.932741 11.000000 5 396.576423
0.620348 4.917481 1.032486 99.000000 3 396.576426
0.622889 4.930691 0.538249 99.000000 1 396.576428
0.348236 2.737417 2.538033 60.000000 14 396.576436
0.351631 2.760241 1.720088 67.000000 10 396.576441
0.354588 2.783426 1.384572 79.000000 8 396.576444
0.356241 2.792515 1.068382 83.000000 6 396.576446
0.627649 4.913197 1.285345 70.000000 4 396.576449
0.630257 4.926768 0.784086 101.000000 2 396.576451
0.633502 4.945275 0.294793 108.000000 0 396.576454
0.010225 0.034530 2.569176 87.000000 31 396.576465
0.063442 0.410001 2.637988 7.000000 28 396.576467
0.194280 1.241834 6.066447 85.000000 27 396.576470
0.262433 1.926590 6.259336 6.000000 25 396.576472
0.340114 2.604656 6.247845 7.000000 23 396.576475
0.544361 4.174357 7.778816 8.000000 21 396.576477
0.272266 2.087873 3.165051 7.000000 19 396.576480
0.354280 2.716750 3.355673 51.000000 17 396.576482
0.031319 0.155185 2.570108 89.000000 30 396.576490
0.049311 0.276782 2.575004 90.000000 29 396.576493
0.227568 1.588385 6.211025 8.000000 26 396.576495
0.298378 2.257452 6.246487 8.000000 24 396.576498
0.392365 2.972431 6.260413 8.000000 22 396.576500
0.271879 2.062444 3.472890 7.000000 20 396.576503
0.288690 2.189940 2.998625 7.000000 18 396.576506
0.357688 2.716973 3.049102 61.000000 16 396.576508
0.353653 2.737999 2.792771 59.000000 15 396.576466
0.286134 2.215257 1.882803 4.000000 13 396.576468
0.358205 2.769401 1.547673 72.000000 9 396.576473
0.359884 2.782376 1.221836 75.000000 7 396.576476
0.368535 2.845361 0.932741 11.000000 5 396.576479
0.638141 4.920157 1.033419 99.000000 3 396.576481
0.640737 4.933425 0.538695 98.000000 1 396.576484
0.358273 2.739888 2.541358 58.000000 14 396.576491
0.289630 2.214935 1.710065 4.000000 12 396.576494
0.363816 2.782234 1.384572 79.000000 8 396.576499
0.365499 2.791318 1.068382 83.000000 6 396.576502
0.643939 4.911088 1.285345 79.000000 4 396.576504
0.647236 4.929561 0.784776 102.000000 2 396.576507
0.649897 4.943148 0.294793 108.000000 0 396.576509
0.010339 0.034496 2.569176 87.000000 31 396.576520
0.065046 0.411323 2.647866 8.000000 28 396.576523
0.198397 1.241183 6.066447 85.000000 27 396.576525
0.268614 1.924230 6.254565 8.000000 25 396.576528
0.348750 2.603513 6.247845 6.000000 23 396.576530
0.552165 4.127412 7.695431 8.000000 21 396.576533
0.278815 2.084169 3.160918 7.000000 19 396.576535
0.363713 2.718738 3.359510 52.000000 17 396.576538
0.031921 0.155358 2.575099 88.000000 30 396.576546
0.050277 0.276609 2.575004 90.000000 29 396.576548
0.233112 1.587581 6.211025 8.000000 26 396.576551
0.306257 2.256397 6.246487 8.000000 24 396.576553
0.402512 2.973272 6.264914 8.000000 22 396.576556
0.278368 2.058947 3.468624 7.000000 20 396.576559
0.295950 2.188971 2.998625 7.000000 18 396.576561
0.367625 2.719067 3.052778 60.000000 16 396.576564
0.362730 2.736811 2.792771 59.000000 15 396.576521
0.292967 2.210437 1.879665 4.000000 13 396.576524
0.367970 2.772590 1.549991 70.000000 9 396.576529
0.369594 2.781102 1.221836 74.000000 7 396.576532
0.379098 2.848813 0.934151 12.000000 5 396.576534
0.654453 4.918014 1.033419 99.000000 3 396.576537
0.657752 4.936209 0.539141 98.000000 1 396.576539
0.367357 2.738685 2.541358 60.000000 14 396.576547
0.297511 2.217968 1.713008 4.000000 12 396.576550
0.373525 2.780948 1.384572 79.000000 8 396.576555
0.375870 2.794706 1.070025 83.000000 6 396.576557
0.661078 4.908810 1.285345 76.000000 4 396.576560
0.664439 4.927271 0.784776 101.000000 2 396.576562
0.667817 4.945800 0.294995 109.000000 0 396.576565
0.010459 0.034460 2.569176 86.000000 31 396.576576
0.066232 0.409559 2.637988 8.000000 28 396.576578
0.202728 1.240483 6.066447 87.000000 27 396.576581
0.275329 1.923280 6.254565 6.000000 25 396.576583
0.358102 2.604216 6.252448 7.000000 23 396.576586
0.560376 4.080363 7.612046 8.000000 21 396.576588
0.285706 2.080396 3.156785 7.000000 19 396.576591
0.373201 2.717452 3.359510 52.000000 17 396.576593
0.032463 0.155245 2.575099 86.000000 30 396.576601
0.051242 0.276431 2.575004 90.000000 29 396.576604
0.238652 1.586758 6.211025 13.000000 26 396.576606
0.314131 2.255314 6.246487 7.000000 24 396.576609
0.412889 2.971848 6.264914 7.000000 22 396.576611
0.285194 2.055379 3.464358 7.000000 20 396.576614
0.303589 2.187925 2.998625 8.000000 18 396.576617
0.377114 2.717767 3.052778 61.000000 16 396.576619
0.372762 2.739062 2.796275 59.000000 15 396.576577
0.300156 2.205543 1.876528 4.000000 13 396.576579
0.303476 2.227032 1.558213 3.000000 11 396.576582
0.377646 2.771289 1.549991 70.000000 9 396.576585
0.379299 2.779795 1.221836 74.000000 7 396.576587
0.389689 2.852225 0.935560 12.000000 5 396.576590
0.672281 4.920566 1.034351 99.000000 3 396.576592
0.674978 4.933884 0.539141 99.000000 1 396.576595
0.377424 2.741085 2.544683 60.000000 14 396.576603
0.304700 2.212912 1.710065 4.000000 12 396.576605
0.309376 2.243972 1.416197 4.000000 10 396.576608
0.383850 2.784123 1.386670 78.000000 8 396.576610
0.385623 2.793377 1.070025 85.000000 6 396.576613
0.678208 4.906473 1.285345 80.000000 4 396.576615
0.682314 4.929827 0.785465 101.000000 2 396.576618
0.685077 4.943439 0.294995 108.000000 0 396.576620
0.010580 0.034423 2.569176 86.000000 31 396.576631
0.067151 0.406260 2.618231 8.000000 28 396.576634
0.207057 1.239768 6.066447 87.000000 27 396.576636
0.281824 1.920830 6.249793 6.000000 25 396.576639
0.367190 2.602950 6.252448 7.000000 23 396.576641
0.567930 4.030935 7.524273 8.000000 21 396.576644
0.292966 2.079386 3.156785 7.000000 19 396.576646
0.383131 2.719307 3.363347 53.000000 17 396.576649
0.033005 0.155131 2.575099 86.000000 30 396.576657
0.052207 0.276251 2.575004 90.000000 29 396.576659
0.244189 1.585915 6.211025 8.000000 26 396.576662
0.322002 2.254204 6.246487 6.000000 24 396.576664
0.424086 2.972471 6.269414 8.000000 22 396.576667
0.292726 2.054320 3.464358 8.000000 20 396.576670
0.311606 2.186797 2.998625 8.000000 18 396.576672
0.387550 2.719723 3.056453 61.000000 16 396.576675
0.382321 2.737744 2.796275 59.000000 15 396.576632
0.307315 2.200627 1.873390 5.000000 13 396.576635
0.311248 2.225959 1.558213 3.000000 11 396.576637
0.387317 2.769953 1.549991 72.000000 9 396.576640
0.389000 2.778455 1.221836 74.000000 7 396.576643
0.399643 2.850847 0.935560 12.000000 5 396.576645
0.690312 4.918069 1.034351 99.000000 3 396.576648
0.693750 4.936308 0.539587 95.000000 1 396.576650
0.387468 2.739683 2.544683 60.000000 14 396.576658
0.312243 2.207778 1.707122 4.000000 12 396.576661
0.317598 2.242823 1.416197 4.000000 10 396.576663
0.394052 2.782697 1.386670 78.000000 8 396.576666
0.395859 2.791945 1.070025 83.000000 6 396.576668
0.696187 4.903954 1.285345 84.000000 4 396.576671
0.701075 4.932196 0.786155 101.000000 2 396.576673
0.703031 4.945963 0.295196 107.000000 0 396.576676
0.010706 0.034384 2.569176 78.000000 31 396.576687
0.069161 0.409075 2.637988 7.000000 28 396.576689
0.211599 1.239000 6.066447 83.000000 27 396.576692
0.288863 1.919784 6.249793 9.000000 25 396.576694
0.376728 2.601587 6.252448 8.000000 23 396.576697
0.576871 3.988518 7.449667 7.000000 21 396.576699
0.300585 2.078298 3.156785 7.000000 19 396.576702
0.393095 2.717884 3.363347 53.000000 17 396.576705
0.033573 0.155009 2.575099 86.000000 30 396.576712
0.053322 0.276582 2.579975 90.000000 29 396.576715
0.250000 1.585010 6.211025 8.000000 26 396.576717
0.330512 2.254716 6.251180 9.000000 24 396.576720
0.434459 2.970972 6.269414 8.000000 22 396.576723
0.299518 2.050705 3.460092 8.000000 20 396.576725
0.319673 2.188679 3.002614 7.000000 18 396.576728
0.397042 2.718353 3.056453 61.000000 16 396.576730
0.392859 2.739855 2.799780 59.000000 15 396.576688
0.314826 2.195632 1.870252 6.000000 13 396.576690
0.318216 2.216525 1.552730 3.000000 11 396.576693
0.398097 2.772901 1.552309 72.000000 9 396.576696
0.399841 2.781599 1.223709 74.000000 7 396.576698
0.410773 2.854112 0.936969 12.000000 5 396.576701
0.708175 4.920492 1.035284 99.000000 3 396.576703
0.710977 4.933856 0.539587 95.000000 1 396.576706
0.397029 2.738314 2.544683 58.000000 14 396.576714
0.319367 2.202675 1.704179 6.000000 12 396.576716
0.326045 2.245968 1.418729 5.000000 10 396.576719
0.403763 2.781305 1.386670 78.000000 8 396.576721
0.406281 2.795219 1.071668 83.000000 6 396.576724
0.713301 4.901494 1.285345 88.000000 4 396.576726
0.718287 4.929719 0.786155 101.000000 2 396.576729
0.721876 4.948297 0.295398 107.000000 0 396.576731
0.010826 0.034347 2.569176 78.000000 31 396.576742
0.070588 0.408831 2.637988 7.000000 28 396.576745
0.215923 1.238254 6.066447 85.000000 27 396.576747
0.295790 1.920240 6.254565 6.000000 25 396.576750
0.386093 2.602188 6.257050 7.000000 23 396.576752
0.584116 3.941453 7.366282 5.000000 21 396.576755
0.308251 2.080019 3.160918 7.000000 19 396.576757
0.403050 2.719667 3.367184 53.000000 17 396.576760
0.034114 0.154891 2.575099 88.000000 30 396.576768
0.054287 0.276394 2.579975 90.000000 29 396.576770
0.255732 1.585369 6.215865 10.000000 26 396.576773
0.338380 2.253548 6.251180 6.000000 24 396.576775
0.444827 2.969438 6.269414 8.000000 22 396.576778
0.306289 2.047068 3.455826 8.000000 20 396.576781
0.327311 2.187549 3.002614 7.000000 18 396.576783
0.406528 2.716951 3.056453 61.000000 16 396.576786
0.402420 2.738467 2.799780 56.000000 15 396.576743
0.321922 2.190669 1.867114 6.000000 13 396.576746
0.325952 2.215401 1.552730 4.000000 11 396.576749
0.407773 2.771494 1.552309 72.000000 9 396.576751
0.409548 2.780186 1.223709 74.000000 7 396.576754
0.421433 2.857407 0.938378 11.000000 5 396.576756
0.725346 4.917990 1.035284 99.000000 3 396.576759
0.728922 4.936271 0.540034 100.000000 1 396.576761
0.407134 2.740605 2.548008 60.000000 14 396.576769
0.326460 2.197548 1.701236 6.000000 12 396.576772
0.332614 2.236287 1.413664 5.000000 10 396.576774
0.414137 2.784368 1.388768 79.000000 8 396.576777
0.416036 2.793784 1.071668 83.000000 6 396.576779
0.731123 4.903782 1.286517 92.000000 4 396.576782
0.736222 4.932080 0.786845 102.000000 2 396.576784
0.739144 4.945747 0.295398 108.000000 0 396.576787
0.010946 0.034309 2.569176 85.000000 31 396.576798
0.072151 0.409347 2.642927 6.000000 28 396.576800
0.220244 1.237493 6.066447 85.000000 27 396.576803
0.302491 1.919196 6.254565 5.000000 25 396.576805
0.395174 2.600824 6.257050 7.000000 23 396.576808
0.315509 2.078931 3.160918 7.000000 19 396.576813
0.412541 2.718243 3.367184 53.000000 17 396.576816
0.034654 0.154771 2.575099 89.000000 30 396.576823
0.055251 0.276203 2.579975 90.000000 29 396.576826
0.261264 1.584467 6.215865 12.000000 26 396.576828
0.346245 2.252354 6.251180 6.000000 24 396.576831
0.455190 2.967867 6.269414 8.000000 22 396.576834
0.313432 2.045986 3.455826 9.000000 20 396.576836
0.334945 2.186393 3.002614 7.000000 18 396.576839
0.416523 2.718866 3.060128 60.000000 16 396.576841
0.412508 2.740572 2.803284 56.000000 15 396.576799
0.328408 2.181832 1.860839 7.000000 13 396.576801
0.333683 2.214249 1.552730 5.000000 11 396.576804
0.417445 2.770054 1.552309 72.000000 9 396.576807
0.419942 2.783324 1.225582 75.000000 7 396.576809
0.431405 2.855918 0.938378 11.000000 5 396.576812
0.743242 4.920285 1.036216 99.000000 3 396.576814
0.746894 4.938621 0.540480 99.000000 1 396.576817
0.416698 2.739167 2.548008 60.000000 14 396.576825
0.333521 2.192399 1.698292 7.000000 12 396.576827
0.341067 2.239375 1.416197 5.000000 10 396.576830
0.423854 2.782905 1.388768 78.000000 8 396.576832
0.425785 2.792315 1.071668 83.000000 6 396.576835
0.748969 4.906005 1.287689 94.000000 4 396.576837
0.753433 4.929480 0.786845 102.000000 2 396.576840
0.757159 4.948075 0.295599 109.000000 0 396.576843
0.011083 0.034310 2.574176 85.000000 31 396.576853
0.073579 0.409093 2.642927 6.000000 28 396.576856
0.224562 1.236717 6.066447 85.000000 27 396.576858
0.309188 1.918128 6.254565 10.000000 25 396.576861
0.404551 2.601359 6.261652 7.000000 23 396.576863
0.322332 2.075036 3.156785 7.000000 19 396.576869
0.422519 2.719955 3.371021 53.000000 17 396.576871
0.035194 0.154649 2.575099 89.000000 30 396.576879
0.056215 0.276008 2.579975 90.000000 29 396.576881
0.266794 1.583545 6.215865 7.000000 26 396.576884
0.354373 2.252836 6.255873 8.000000 24 396.576887
0.465209 2.964109 6.264914 8.000000 22 396.576889
0.320168 2.042303 3.451560 9.000000 20 396.576892
0.342575 2.185211 3.002614 8.000000 18 396.576894
0.426011 2.717396 3.060128 60.000000 16 396.576897
0.422615 2.742640 2.806789 59.000000 15 396.576854
0.335429 2.176825 1.857701 7.000000 13 396.576857
0.340772 2.208939 1.549989 6.000000 11 396.576860
0.427787 2.772958 1.554627 72.000000 9 396.576862
0.429655 2.781841 1.225582 75.000000 7 396.576865
0.442104 2.859136 0.939787 11.000000 5 396.576867
0.760413 4.917661 1.036216 99.000000 3 396.576870
0.764890 4.940905 0.540926 99.000000 1 396.576872
0.426831 2.741386 2.551333 58.000000 14 396.576880
0.340550 2.187228 1.695349 7.000000 12 396.576883
0.348218 2.233911 1.413664 6.000000 10 396.576885
