# .PCD v.7 - Point Cloud Data file format
VERSION .7
FIELDS x y z normal_x normal_y normal_z
SIZE 4 4 4 4 2 4
TYPE F F F F U F
COUNT 1 1 1 1 1 1
WIDTH 950
HEIGHT 1
VIEWPOINT 0 0 0 1 0 0 0
POINTS 950
DATA ascii
1.075112 2.840709 1.315487 78.000000 7 427.080778
1.085689 2.867145 0.990518 30.000000 5 427.080780
1.172462 3.096299 0.720058 29.000000 3 427.080783
1.194413 3.152606 0.395015 20.000000 1 427.080785
0.689488 1.815112 1.809892 4.000000 14 427.080793
0.595152 1.566764 1.303909 8.000000 12 427.080796
0.697537 1.835328 1.238927 7.000000 10 427.080798
1.088764 2.864693 1.504161 86.000000 8 427.080801
1.081163 2.843199 1.147231 82.000000 6 427.080803
1.152907 3.030275 0.872689 32.000000 4 427.080806
1.185636 3.114663 0.556447 26.000000 2 427.080808
1.212616 3.183868 0.231109 19.000000 0 427.080811
0.036026 0.055690 6.054043 82.000000 31 427.080822
0.362929 0.881557 6.060894 87.000000 28 427.080824
0.481771 1.166455 6.090924 87.000000 27 427.080827
0.700546 1.796172 6.206847 12.000000 25 427.080829
0.775747 2.022002 5.161650 16.000000 23 427.080832
0.573111 1.494608 2.999564 4.000000 21 427.080834
0.556386 1.450984 2.354993 9.000000 19 427.080837
0.583781 1.522418 2.028090 8.000000 17 427.080840
0.153213 0.325600 6.044267 88.000000 30 427.080847
0.263931 0.599930 6.059963 83.000000 29 427.080850
0.597367 1.500101 6.249739 8.000000 26 427.080852
0.753530 1.953898 5.749054 9.000000 24 427.080855
0.561145 1.456563 3.289862 5.000000 22 427.080858
0.543224 1.410765 2.542916 11.000000 20 427.080860
0.582549 1.512884 2.220673 17.000000 18 427.080863
0.646079 1.677860 2.027406 7.000000 16 427.080865
0.683652 1.789392 1.962193 5.000000 15 427.080823
0.701324 1.835640 1.666296 7.000000 13 427.080826
0.621880 1.626852 1.226496 7.000000 11 427.080828
0.805683 2.107674 1.267192 7.000000 9 427.080831
1.085021 2.836939 1.315487 77.000000 7 427.080833
1.093976 2.858857 0.989109 30.000000 5 427.080836
1.172729 3.064661 0.714462 30.000000 3 427.080838
1.196507 3.125164 0.392784 20.000000 1 427.080841
0.687790 1.791776 1.789943 5.000000 14 427.080849
0.600618 1.564677 1.303909 7.000000 12 427.080851
0.705485 1.836906 1.241459 7.000000 10 427.080854
1.100384 2.865112 1.506259 88.000000 8 427.080856
1.092775 2.843816 1.148874 81.000000 6 427.080859
1.153012 2.999011 0.865655 32.000000 4 427.080861
1.187611 3.087395 0.552997 27.000000 2 427.080864
1.214750 3.156303 0.230102 19.000000 0 427.080867
0.036220 0.055564 6.054043 82.000000 31 427.080877
0.366004 0.880284 6.060894 86.000000 28 427.080880
0.485840 1.164766 6.090924 87.000000 27 427.080882
0.706264 1.792326 6.202075 12.000000 25 427.080885
0.778563 2.008353 5.134034 7.000000 23 427.080887
0.587846 1.517172 3.047839 4.000000 21 427.080890
0.559414 1.443785 2.346727 11.000000 19 427.080893
0.590250 1.523360 2.031927 8.000000 17 427.080895
0.154349 0.325063 6.044267 88.000000 30 427.080903
0.266024 0.599006 6.059963 83.000000 29 427.080905
0.602600 1.498006 6.249739 10.000000 26 427.080908
0.755333 1.938393 5.711511 9.000000 24 427.080911
0.563856 1.448507 3.276360 5.000000 22 427.080913
0.551928 1.418582 2.559980 6.000000 20 427.080916
0.584548 1.502414 2.208704 11.000000 18 427.080918
0.651932 1.675595 2.027406 7.000000 16 427.080921
0.683472 1.770360 1.944670 5.000000 15 427.080878
0.702120 1.818654 1.653745 7.000000 13 427.080881
0.627555 1.624672 1.226496 7.000000 11 427.080884
0.814631 2.108981 1.269509 7.000000 9 427.080886
1.096588 2.837458 1.317360 79.000000 7 427.080889
1.102219 2.850547 0.987700 30.000000 5 427.080891
1.172790 3.033058 0.708867 30.000000 3 427.080894
1.198425 3.097745 0.390553 25.000000 1 427.080896
0.687288 1.771956 1.773318 5.000000 14 427.080904
0.607538 1.566339 1.306852 7.000000 12 427.080907
0.711892 1.834433 1.241459 7.000000 10 427.080909
1.115305 2.873946 1.512553 65.000000 8 427.080912
1.104404 2.844386 1.150516 82.000000 6 427.080914
1.152913 2.967783 0.858621 33.000000 4 427.080917
1.189410 3.060152 0.549548 28.000000 2 427.080920
1.214896 3.124106 0.228893 21.000000 0 427.080922
0.036414 0.055437 6.054043 89.000000 31 427.080933
0.369074 0.879002 6.060894 79.000000 28 427.080935
0.489903 1.163063 6.090924 87.000000 27 427.080938
0.712516 1.789850 6.202075 11.000000 25 427.080940
0.781294 1.994708 5.106419 7.000000 23 427.080943
0.589645 1.506187 3.030284 7.000000 21 427.080946
0.559321 1.428722 2.326062 11.000000 19 427.080948
0.595564 1.521291 2.031927 8.000000 17 427.080951
0.155357 0.324262 6.039276 88.000000 30 427.080958
0.268113 0.598073 6.059963 83.000000 29 427.080961
0.607825 1.495894 6.249739 8.000000 26 427.080964
0.758302 1.926110 5.683355 9.000000 24 427.080966
0.565721 1.438423 3.258356 6.000000 22 427.080969
0.590891 1.503170 2.212694 3.000000 18 427.080974
0.659017 1.676464 2.031082 7.000000 16 427.080976
0.683167 1.751351 1.927148 5.000000 15 427.080934
0.702805 1.801686 1.641194 8.000000 13 427.080937
0.633222 1.622471 1.226496 7.000000 11 427.080939
0.821988 2.106124 1.269509 7.000000 9 427.080942
1.108173 2.837931 1.319234 74.000000 7 427.080944
1.112162 2.846682 0.987700 33.000000 5 427.080947
1.172645 3.001493 0.703271 30.000000 3 427.080949
1.201978 3.074990 0.388768 26.000000 1 427.080952
0.686657 1.752162 1.756694 6.000000 14 427.080960
0.613001 1.564209 1.306852 7.000000 12 427.080962
0.718291 1.831936 1.241459 7.000000 10 427.080965
1.113733 2.840459 1.497867 37.000000 8 427.080967
1.114326 2.840514 1.150516 83.000000 6 427.080970
1.152610 2.936594 0.851587 33.000000 4 427.080972
1.191034 3.032934 0.546099 29.000000 2 427.080975
1.214832 3.091947 0.227683 20.000000 0 427.080978
0.036581 0.055275 6.049043 89.000000 31 427.080988
0.372140 0.877708 6.060894 79.000000 28 427.080991
0.494358 1.162283 6.095819 87.000000 27 427.080993
0.718202 1.785967 6.197304 9.000000 25 427.080996
0.794722 2.008318 5.147842 9.000000 23 427.080998
0.593137 1.499664 3.021507 8.000000 21 427.081001
0.564305 1.426761 2.326062 9.000000 19 427.081003
0.602050 1.522184 2.035764 9.000000 17 427.081006
0.156488 0.323717 6.039276 88.000000 30 427.081014
0.270199 0.597134 6.059963 83.000000 29 427.081016
0.613043 1.493763 6.249739 8.000000 26 427.081019
0.760556 1.912227 5.650506 10.000000 24 427.081021
0.573955 1.444535 3.276360 8.000000 22 427.081024
0.664865 1.674154 2.031082 7.000000 16 427.081032
0.682738 1.732366 1.909625 7.000000 15 427.080989
0.704807 1.788356 1.631781 8.000000 13 427.080992
0.640415 1.624141 1.229237 7.000000 11 427.080994
0.830960 2.107364 1.271828 7.000000 9 427.080997
1.111267 2.816796 1.311741 37.000000 7 427.081000
1.120331 2.838320 0.986291 35.000000 5 427.081002
1.170491 2.965397 0.696743 30.000000 3 427.081005
1.203558 3.047616 0.386537 27.000000 1 427.081007
0.685895 1.732394 1.740070 6.000000 14 427.081015
0.619946 1.565818 1.309795 7.000000 12 427.081018
0.724682 1.829418 1.241459 7.000000 10 427.081020
1.116955 2.819675 1.489475 35.000000 8 427.081023
1.124235 2.836607 1.150516 58.000000 6 427.081025
1.153895 2.909961 0.845725 33.000000 4 427.081028
1.190657 3.001139 0.541960 28.000000 2 427.081030
1.214558 3.059826 0.226474 21.000000 0 427.081033
0.036774 0.055147 6.049043 90.000000 31 427.081044
0.375202 0.876404 6.060894 86.000000 28 427.081046
0.498412 1.160550 6.095819 79.000000 27 427.081049
0.724432 1.783449 6.197304 8.000000 25 427.081051
0.798101 1.996462 5.124829 10.000000 23 427.081054
0.597479 1.495359 3.017118 8.000000 21 427.081056
0.567193 1.419556 2.317796 7.000000 19 427.081059
0.607359 1.520073 2.035764 8.000000 17 427.081061
0.157560 0.323197 6.039276 88.000000 30 427.081069
0.272178 0.596234 6.059963 83.000000 29 427.081072
0.617993 1.491722 6.249739 9.000000 26 427.081074
0.763035 1.900086 5.622349 10.000000 24 427.081077
0.578994 1.442523 3.276360 12.000000 22 427.081079
0.670413 1.671940 2.031082 7.000000 16 427.081087
0.683505 1.716720 1.895607 8.000000 15 427.081045
0.706726 1.775035 1.622368 9.000000 13 427.081047
0.646081 1.621895 1.229237 7.000000 11 427.081050
0.838311 2.104450 1.271828 7.000000 9 427.081052
1.113739 2.795868 1.304249 33.000000 7 427.081055
1.129737 2.834589 0.986291 38.000000 5 427.081058
1.169918 2.933916 0.691147 31.000000 3 427.081060
1.204962 3.020269 0.384306 27.000000 1 427.081063
0.685004 1.712653 1.723446 8.000000 14 427.081070
0.625408 1.563645 1.309795 7.000000 12 427.081073
0.730744 1.827005 1.241459 7.000000 10 427.081076
1.117872 2.794886 1.478985 34.000000 8 427.081078
1.124862 2.810941 1.142303 36.000000 6 427.081081
1.154505 2.883556 0.839864 33.000000 4 427.081083
1.189553 2.969592 0.537822 29.000000 2 427.081086
1.215405 3.032595 0.225467 21.000000 0 427.081088
0.036956 0.055024 6.049043 90.000000 31 427.081099
0.378106 0.875154 6.060894 86.000000 28 427.081102
0.502258 1.158891 6.095819 79.000000 27 427.081104
0.725242 1.768600 6.154358 8.000000 25 427.081107
0.801061 1.984746 5.101817 10.000000 23 427.081109
0.601538 1.491148 3.012729 9.000000 21 427.081112
0.570845 1.415058 2.313663 4.000000 19 427.081114
0.612397 1.518050 2.035764 8.000000 17 427.081117
0.158688 0.322645 6.039276 88.000000 30 427.081125
0.274257 0.595281 6.059963 83.000000 29 427.081127
0.623682 1.490716 6.254578 11.000000 26 427.081130
0.765122 1.886217 5.589499 9.000000 24 427.081132
0.584844 1.442511 3.280860 3.000000 22 427.081135
0.602072 1.485726 2.196736 3.000000 18 427.081140
0.675263 1.666329 2.027406 7.000000 16 427.081143
0.683873 1.701208 1.881589 8.000000 15 427.081100
0.708252 1.761846 1.612954 9.000000 13 427.081103
0.653016 1.623623 1.231978 7.000000 11 427.081105
0.846938 2.105769 1.274145 7.000000 9 427.081108
1.114838 2.770460 1.294884 32.000000 7 427.081111
1.134250 2.817278 0.982063 33.000000 5 427.081113
1.169139 2.902476 0.685551 31.000000 3 427.081116
1.206190 2.992949 0.382075 28.000000 1 427.081118
0.685382 1.696401 1.710146 9.000000 14 427.081126
0.630862 1.561452 1.309795 7.000000 12 427.081129
0.737436 1.824314 1.241459 7.000000 10 427.081131
1.121305 2.773939 1.470592 34.000000 8 427.081134
1.128075 2.789287 1.135732 34.000000 6 427.081136
1.154127 2.852271 0.832830 33.000000 4 427.081139
1.189279 2.937670 0.533683 30.000000 2 427.081141
1.214735 3.000549 0.224257 21.000000 0 427.081144
0.037131 0.054854 6.044044 89.000000 31 427.081155
0.381311 0.873763 6.060894 86.000000 28 427.081157
0.506502 1.157042 6.095819 87.000000 27 427.081160
0.732291 1.767310 6.159131 8.000000 25 427.081162
0.806117 1.976370 5.088009 10.000000 23 427.081165
0.607000 1.488933 3.012729 9.000000 21 427.081167
0.617957 1.515796 2.035764 8.000000 17 427.081172
0.159869 0.322061 6.039276 88.000000 30 427.081180
0.276437 0.594272 6.059963 83.000000 29 427.081183
0.629632 1.489579 6.259418 9.000000 26 427.081185
0.768103 1.873820 5.561343 9.000000 24 427.081188
0.589050 1.438445 3.276360 3.000000 22 427.081190
0.616388 1.505930 2.228652 6.000000 18 427.081196
0.684928 1.673375 2.038432 7.000000 16 427.081198
0.684734 1.685474 1.867570 6.000000 15 427.081156
0.708844 1.744812 1.600403 7.000000 13 427.081158
0.658963 1.621219 1.231978 7.000000 11 427.081161
0.854650 2.102651 1.274145 7.000000 9 427.081164
1.118000 2.749178 1.287392 32.000000 7 427.081166
1.139144 2.799771 0.977836 31.000000 5 427.081169
1.170007 2.875627 0.680888 32.000000 3 427.081171
1.207242 2.965658 0.379844 28.000000 1 427.081174
0.685656 1.680169 1.696847 8.000000 14 427.081182
0.636309 1.559240 1.309795 7.000000 12 427.081184
0.743799 1.821729 1.241459 7.000000 10 427.081187
1.122403 2.748999 1.460102 35.000000 8 427.081189
1.130661 2.767845 1.129161 33.000000 6 427.081192
1.154882 2.825728 0.826968 33.000000 4 427.081194
1.188280 2.905998 0.529544 30.000000 2 427.081197
1.216266 2.972957 0.223250 22.000000 0 427.081199
0.037323 0.054724 6.044044 89.000000 31 427.081210
0.384359 0.872426 6.060894 86.000000 28 427.081213
0.510538 1.155267 6.095819 87.000000 27 427.081215
0.732689 1.750965 6.111413 8.000000 25 427.081218
0.807802 1.960899 5.055791 10.000000 23 427.081220
0.611281 1.484590 3.008341 11.000000 21 427.081223
0.624464 1.516594 2.039601 9.000000 17 427.081228
0.160992 0.321501 6.039276 89.000000 30 427.081236
0.278737 0.593786 6.064934 83.000000 29 427.081238
0.635321 1.488528 6.264257 8.000000 26 427.081241
0.770678 1.861561 5.533186 10.000000 24 427.081243
0.594068 1.436381 3.276360 2.000000 22 427.081246
0.634307 1.534408 2.272536 9.000000 18 427.081251
0.681699 1.649042 2.012706 5.000000 16 427.081254
0.685198 1.669876 1.853552 6.000000 15 427.081211
0.710497 1.731523 1.590990 5.000000 13 427.081214
0.666206 1.622777 1.234720 7.000000 11 427.081216
0.861985 2.099654 1.274145 7.000000 9 427.081219
1.120544 2.728105 1.279900 32.000000 7 427.081222
1.141616 2.778029 0.972199 31.000000 5 427.081224
1.168835 2.844264 0.675292 32.000000 3 427.081227
1.206224 2.933790 0.377167 28.000000 1 427.081229
0.687247 1.667407 1.686872 7.000000 14 427.081237
0.641748 1.557010 1.309795 6.000000 12 427.081240
0.751797 1.823107 1.243992 7.000000 10 427.081242
1.125071 2.728281 1.451710 35.000000 8 427.081245
1.131310 2.742054 1.120948 34.000000 6 427.081247
1.155465 2.799215 0.821107 33.000000 4 427.081250
1.188965 2.878947 0.526095 31.000000 2 427.081252
1.217097 2.945607 0.222242 23.000000 0 427.081255
0.037513 0.054593 6.044044 89.000000 31 427.081266
0.387402 0.871079 6.060894 86.000000 28 427.081268
0.514568 1.153478 6.095819 87.000000 27 427.081271
0.735309 1.740143 6.082783 9.000000 25 427.081273
0.810889 1.949048 5.032779 9.000000 23 427.081276
0.615540 1.480235 3.003952 15.000000 21 427.081278
0.629755 1.514405 2.039601 10.000000 17 427.081284
0.162114 0.320937 6.039276 89.000000 30 427.081291
0.280808 0.592809 6.064934 83.000000 29 427.081294
0.640513 1.486302 6.264257 9.000000 26 427.081296
0.773843 1.850899 5.509723 10.000000 24 427.081299
0.599078 1.434298 3.276360 3.000000 22 427.081302
0.680300 1.629530 2.412169 8.000000 18 427.081307
0.691369 1.656038 2.023731 5.000000 16 427.081309
0.685562 1.654296 1.839534 7.000000 15 427.081267
0.712065 1.718243 1.581576 4.000000 13 427.081269
0.671866 1.620442 1.234720 7.000000 11 427.081272
0.871005 2.100725 1.276464 7.000000 9 427.081275
1.121178 2.702766 1.270535 32.000000 7 427.081277
1.143951 2.756303 0.966562 31.000000 5 427.081280
1.169341 2.817482 0.670629 32.000000 3 427.081282
1.206909 2.906565 0.374936 29.000000 1 427.081285
0.688758 1.654655 1.676898 7.000000 14 427.081293
0.648732 1.558492 1.312738 6.000000 12 427.081295
0.758157 1.820472 1.243992 7.000000 10 427.081298
1.125863 2.703389 1.441220 35.000000 8 427.081300
1.133610 2.720652 1.114377 34.000000 6 427.081303
1.157748 2.777219 0.816418 34.000000 4 427.081305
1.187570 2.847355 0.521956 31.000000 2 427.081308
1.217752 2.918287 0.221234 23.000000 0 427.081310
0.037704 0.054462 6.044044 89.000000 31 427.081321
0.390440 0.869722 6.060894 86.000000 28 427.081324
0.518591 1.151675 6.095819 87.000000 27 427.081326
0.737275 1.727950 6.049380 8.000000 25 427.081329
0.813147 1.935399 5.005164 9.000000 23 427.081331
0.619775 1.475869 2.999564 14.000000 21 427.081334
0.636278 1.515153 2.043438 11.000000 17 427.081339
0.163233 0.320369 6.039276 89.000000 30 427.081347
0.282876 0.591826 6.064934 84.000000 29 427.081349
0.645698 1.484057 6.264257 10.000000 26 427.081352
0.776272 1.838648 5.481566 10.000000 24 427.081354
0.605774 1.436211 3.285361 4.000000 22 427.081357
0.753429 1.787128 3.242529 8.000000 20 427.081360
0.715255 1.696576 2.511906 12.000000 18 427.081362
0.685293 1.625500 1.990655 4.000000 16 427.081365
0.685825 1.638734 1.825516 8.000000 15 427.081322
0.712047 1.701383 1.569025 4.000000 13 427.081325
0.677518 1.618087 1.234720 7.000000 11 427.081328
0.878333 2.097672 1.276464 7.000000 9 427.081330
1.123441 2.681733 1.263042 32.000000 7 427.081333
1.144293 2.730171 0.959516 31.000000 5 427.081335
1.169675 2.790730 0.665966 32.000000 3 427.081338
1.205492 2.874779 0.372259 30.000000 1 427.081340
0.690189 1.641913 1.666923 8.000000 14 427.081348
0.655734 1.559944 1.315682 6.000000 12 427.081351
0.764507 1.817814 1.243992 7.000000 10 427.081353
1.128255 2.682708 1.432827 35.000000 8 427.081356
1.135773 2.699267 1.107807 34.000000 6 427.081358
1.158006 2.750762 0.810556 34.000000 4 427.081361
1.187891 2.820373 0.518507 31.000000 2 427.081363
1.218231 2.890999 0.220227 23.000000 0 427.081366
0.037894 0.054330 6.044044 89.000000 31 427.081377
0.393153 0.867646 6.055954 86.000000 28 427.081379
0.522608 1.149858 6.095819 87.000000 27 427.081382
0.740347 1.718507 6.025522 8.000000 25 427.081384
0.815320 1.921758 4.977549 10.000000 23 427.081387
0.623988 1.471491 2.995175 8.000000 21 427.081389
0.641563 1.512923 2.043438 11.000000 17 427.081395
0.164350 0.319797 6.039276 88.000000 30 427.081402
0.285172 0.591315 6.069906 84.000000 29 427.081405
0.650874 1.481794 6.264257 9.000000 26 427.081407
0.779301 1.827990 5.458102 10.000000 24 427.081410
0.612490 1.438095 3.294363 5.000000 22 427.081413
0.764770 1.796485 3.263859 13.000000 20 427.081415
0.757770 1.780036 2.635580 25.000000 18 427.081418
0.684323 1.607501 1.972279 4.000000 16 427.081420
0.687376 1.626475 1.815002 8.000000 15 427.081378
0.711920 1.684544 1.556474 5.000000 13 427.081380
0.683163 1.615712 1.234720 7.000000 11 427.081383
0.885650 2.094594 1.276464 7.000000 9 427.081386
1.123764 2.656447 1.253677 33.000000 7 427.081388
1.146337 2.708489 0.953879 31.000000 5 427.081391
1.171751 2.768535 0.662236 33.000000 3 427.081393
1.205810 2.847624 0.370028 30.000000 1 427.081396
0.691538 1.629182 1.656949 9.000000 14 427.081404
0.664334 1.565087 1.321568 6.000000 12 427.081406
0.770847 1.815135 1.243992 7.000000 10 427.081409
1.128742 2.657866 1.422337 36.000000 8 427.081411
1.135955 2.673554 1.099593 34.000000 6 427.081414
1.158093 2.724336 0.804694 34.000000 4 427.081416
1.188037 2.793424 0.515058 32.000000 2 427.081419
1.220491 2.868341 0.219421 24.000000 0 427.081422
0.038110 0.054232 6.049043 89.000000 31 427.081432
0.396179 0.866268 6.055954 87.000000 28 427.081435
0.526618 1.148026 6.095819 87.000000 27 427.081437
0.742767 1.707695 5.996891 8.000000 25 427.081440
0.817407 1.908126 4.949934 9.000000 23 427.081442
0.628177 1.467101 2.990786 5.000000 21 427.081445
0.648102 1.513621 2.047275 8.000000 17 427.081450
0.165465 0.319222 6.039276 88.000000 30 427.081458
0.287235 0.590316 6.069906 84.000000 29 427.081460
0.655532 1.478363 6.259418 9.000000 26 427.081463
0.782266 1.817333 5.434639 10.000000 24 427.081466
0.619227 1.439950 3.303365 6.000000 22 427.081468
0.774126 1.800993 3.276657 13.000000 20 427.081471
0.768740 1.788456 2.651538 27.000000 18 427.081473
0.683236 1.589530 1.953903 6.000000 16 427.081476
0.687450 1.610946 1.800984 6.000000 15 427.081433
0.711684 1.667727 1.543923 7.000000 13 427.081436
0.688798 1.613317 1.234720 7.000000 11 427.081439
0.892956 2.091489 1.276464 7.000000 9 427.081441
1.125745 2.635455 1.246185 33.000000 7 427.081444
1.146358 2.682414 0.946833 30.000000 5 427.081446
1.171755 2.741843 0.657573 33.000000 3 427.081449
1.205954 2.820503 0.367797 30.000000 1 427.081451
0.692808 1.616461 1.646974 8.000000 14 427.081459
0.671386 1.566473 1.324511 6.000000 12 427.081462
0.777179 1.812433 1.243992 7.000000 10 427.081464
1.130858 2.637226 1.413945 35.000000 8 427.081467
1.135971 2.647873 1.091380 34.000000 6 427.081469
1.159927 2.702411 0.800005 34.000000 4 427.081472
1.188011 2.766508 0.511609 32.000000 2 427.081474
1.220635 2.841112 0.218413 25.000000 0 427.081477
0.038299 0.054098 6.049043 89.000000 31 427.081488
0.399200 0.864880 6.055954 87.000000 28 427.081490
0.530622 1.146181 6.095819 87.000000 27 427.081493
0.745120 1.696887 5.968261 8.000000 25 427.081495
0.820960 1.898088 4.931523 9.000000 23 427.081498
0.631393 1.460501 2.982009 4.000000 21 427.081500
0.754011 1.744118 2.863346 12.000000 19 427.081503
0.654654 1.514292 2.051112 6.000000 17 427.081506
0.166579 0.318642 6.039276 88.000000 30 427.081513
0.289294 0.589310 6.069906 85.000000 29 427.081516
0.659661 1.473770 6.249739 10.000000 26 427.081518
0.785166 1.806678 5.411174 10.000000 24 427.081521
0.625984 1.441774 3.312366 6.000000 22 427.081524
0.780408 1.798280 3.276657 12.000000 20 427.081526
0.773778 1.782997 2.647549 27.000000 18 427.081529
0.682032 1.571586 1.935527 7.000000 16 427.081531
0.688836 1.598711 1.790470 6.000000 15 427.081489
0.711340 1.650932 1.531372 7.000000 13 427.081492
0.694426 1.610903 1.234720 7.000000 11 427.081494
0.902005 2.092427 1.278782 7.000000 9 427.081497
1.125758 2.610225 1.236820 33.000000 7 427.081499
1.146211 2.656373 0.939787 30.000000 5 427.081502
1.171588 2.715185 0.652909 33.000000 3 427.081504
1.205922 2.793415 0.365566 31.000000 1 427.081507
0.693997 1.603751 1.637000 7.000000 14 427.081515
0.676850 1.564120 1.324511 7.000000 12 427.081517
0.783500 1.809709 1.243992 7.000000 10 427.081520
1.131041 2.612437 1.403455 36.000000 8 427.081522
1.137699 2.626558 1.084809 34.000000 6 427.081525
1.159690 2.676046 0.794143 34.000000 4 427.081527
1.187811 2.739626 0.508159 32.000000 2 427.081530
1.222593 2.818501 0.217607 25.000000 0 427.081533
0.038488 0.053964 6.049043 89.000000 31 427.081543
0.402217 0.863482 6.055954 86.000000 28 427.081546
0.534620 1.144322 6.095819 87.000000 27 427.081548
0.748012 1.687449 5.944403 9.000000 25 427.081551
0.823672 1.886259 4.908511 9.000000 23 427.081553
0.635529 1.456093 2.977620 4.000000 21 427.081556
0.758968 1.738897 2.859213 4.000000 19 427.081559
0.662501 1.517875 2.058786 5.000000 17 427.081561
0.167690 0.318059 6.039276 89.000000 30 427.081569
0.291349 0.588297 6.069906 85.000000 29 427.081571
0.664283 1.470312 6.244900 14.000000 26 427.081574
0.787307 1.794445 5.383018 10.000000 24 427.081577
0.631888 1.441575 3.316867 5.000000 22 427.081579
0.784587 1.790767 3.268125 10.000000 20 427.081582
0.777578 1.774763 2.639570 19.000000 18 427.081584
0.683432 1.559880 1.924502 8.000000 16 427.081587
0.690145 1.586486 1.779957 6.000000 15 427.081544
0.710886 1.634160 1.518821 7.000000 13 427.081547
0.700044 1.608469 1.234720 7.000000 11 427.081550
0.909303 2.089266 1.278782 7.000000 9 427.081552
1.127460 2.589278 1.229328 33.000000 7 427.081555
1.145897 2.630365 0.932741 32.000000 5 427.081557
1.171249 2.688561 0.648246 34.000000 3 427.081560
1.205717 2.766362 0.363335 32.000000 1 427.081562
0.696600 1.594475 1.630350 7.000000 14 427.081570
0.683924 1.565452 1.327454 7.000000 12 427.081573
0.791539 1.810913 1.246524 7.000000 10 427.081575
1.132883 2.591839 1.395062 36.000000 8 427.081578
1.137400 2.600936 1.076596 34.000000 6 427.081580
1.161231 2.654170 0.789454 35.000000 4 427.081583
1.187438 2.712780 0.504710 33.000000 2 427.081586
1.222403 2.791334 0.216599 26.000000 0 427.081588
0.038676 0.053830 6.049043 90.000000 31 427.081599
0.405559 0.862775 6.060894 86.000000 28 427.081601
0.538611 1.142449 6.095819 85.000000 27 427.081604
0.750847 1.678012 5.920544 9.000000 25 427.081606
0.826311 1.874434 4.885498 9.000000 23 427.081609
0.645438 1.464827 2.999564 5.000000 21 427.081612
0.765034 1.736237 2.859213 4.000000 19 427.081614
0.669088 1.518486 2.062623 4.000000 17 427.081617
0.168799 0.317472 6.039276 89.000000 30 427.081624
0.293162 0.586799 6.064934 84.000000 29 427.081627
0.668368 1.465695 6.235221 11.000000 26 427.081630
0.790072 1.783796 5.359554 10.000000 24 427.081632
0.637797 1.441352 3.321368 5.000000 22 427.081635
0.789778 1.785632 3.263859 8.000000 20 427.081637
0.782549 1.769282 2.635580 19.000000 18 427.081640
0.684759 1.548183 1.913476 8.000000 16 427.081642
0.691376 1.574271 1.769443 8.000000 15 427.081600
0.710325 1.617411 1.506270 8.000000 13 427.081603
0.705655 1.606016 1.234720 7.000000 11 427.081605
0.916591 2.086079 1.278782 7.000000 9 427.081608
1.129029 2.568351 1.221836 33.000000 7 427.081610
1.147346 2.608783 0.927105 32.000000 5 427.081613
1.172717 2.666471 0.644516 34.000000 3 427.081615
1.205338 2.739345 0.361104 32.000000 1 427.081618
0.699148 1.585200 1.623700 7.000000 14 427.081626
0.689384 1.563055 1.327454 7.000000 12 427.081628
0.797856 1.808139 1.246524 7.000000 10 427.081631
1.134594 2.571259 1.386670 36.000000 8 427.081633
1.138843 2.579670 1.070025 33.000000 6 427.081636
1.160669 2.627869 0.783593 36.000000 4 427.081638
1.188894 2.690500 0.501951 33.000000 2 427.081641
1.222039 2.764204 0.215592 27.000000 0 427.081644
0.038864 0.053694 6.049043 89.000000 31 427.081655
0.408569 0.861354 6.060894 86.000000 28 427.081658
0.542596 1.140562 6.095819 85.000000 27 427.081660
0.753011 1.667214 5.891914 9.000000 25 427.081663
0.828877 1.862614 4.862485 9.000000 23 427.081665
0.652495 1.466943 3.008341 5.000000 21 427.081668
0.775664 1.743840 2.875745 4.000000 19 427.081670
0.675687 1.519071 2.066460 4.000000 17 427.081673
0.169906 0.316880 6.039276 89.000000 30 427.081681
0.295208 0.585772 6.064934 83.000000 29 427.081683
0.672428 1.461068 6.225543 9.000000 26 427.081686
0.792068 1.771575 5.331398 10.000000 24 427.081688
0.641936 1.437129 3.316867 6.000000 22 427.081691
0.793880 1.778102 3.255327 8.000000 20 427.081693
0.785034 1.758283 2.623612 12.000000 18 427.081696
0.686013 1.536497 1.902451 8.000000 16 427.081699
0.692531 1.562068 1.758929 8.000000 15 427.081656
0.711233 1.604246 1.496856 8.000000 13 427.081659
0.712952 1.607365 1.237461 7.000000 11 427.081661
0.923867 2.082867 1.278782 7.000000 9 427.081664
1.128585 2.543207 1.212471 34.000000 7 427.081667
1.146712 2.582839 0.920059 32.000000 5 427.081669
1.172051 2.639912 0.639853 34.000000 3 427.081672
1.204785 2.712364 0.358872 30.000000 1 427.081674
0.701639 1.575927 1.617051 8.000000 14 427.081682
0.694836 1.560639 1.327454 7.000000 12 427.081685
0.804163 1.805343 1.246524 7.000000 10 427.081687
1.134329 2.546554 1.376180 36.000000 8 427.081690
1.140152 2.558424 1.063454 33.000000 6 427.081692
1.161918 2.606044 0.778903 35.000000 4 427.081695
1.188191 2.663721 0.498502 33.000000 2 427.081697
1.223536 2.741672 0.214785 26.000000 0 427.081700
0.039051 0.053558 6.049043 81.000000 31 427.081711
0.411909 0.860624 6.065834 86.000000 28 427.081713
0.546574 1.138661 6.095819 83.000000 27 427.081716
0.755728 1.657780 5.868055 9.000000 25 427.081718
0.830571 1.849017 4.834870 9.000000 23 427.081721
0.659574 1.469028 3.017118 5.000000 21 427.081723
0.780594 1.738555 2.871612 6.000000 19 427.081726
0.682299 1.519628 2.070297 4.000000 17 427.081728
0.171150 0.316540 6.044267 88.000000 30 427.081736
0.297251 0.584738 6.064934 83.000000 29 427.081739
0.676464 1.456431 6.215865 8.000000 26 427.081741
0.794697 1.760935 5.307933 10.000000 24 427.081744
0.649634 1.440835 3.330370 6.000000 22 427.081746
0.802225 1.780075 3.263859 7.000000 20 427.081749
0.796120 1.766524 2.639570 9.000000 18 427.081752
0.688586 1.527911 1.895101 8.000000 16 427.081754
0.695066 1.553131 1.751920 9.000000 15 427.081712
0.712058 1.591093 1.487443 9.000000 13 427.081714
0.718558 1.604867 1.237461 7.000000 11 427.081717
0.932942 2.083673 1.281100 7.000000 9 427.081719
1.129874 2.522328 1.204978 34.000000 7 427.081722
1.147873 2.561310 0.914422 32.000000 5 427.081725
1.173223 2.617874 0.636122 34.000000 3 427.081727
1.204058 2.685421 0.356641 30.000000 1 427.081730
0.704075 1.566656 1.610401 8.000000 14 427.081737
0.700279 1.558204 1.327454 8.000000 12 427.081740
0.810459 1.802525 1.246524 7.000000 10 427.081743
1.135766 2.526022 1.367788 37.000000 8 427.081745
1.141326 2.537202 1.056883 34.000000 6 427.081748
1.161034 2.579810 0.773042 35.000000 4 427.081750
1.189349 2.641494 0.495743 33.000000 2 427.081753
1.222839 2.714609 0.213778 27.000000 0 427.081755
0.039237 0.053422 6.049043 81.000000 31 427.081766
0.414910 0.859181 6.065834 86.000000 28 427.081769
0.550545 1.136746 6.095819 83.000000 27 427.081771
0.758388 1.648348 5.844197 9.000000 25 427.081774
0.832179 1.835430 4.807255 9.000000 23 427.081776
0.666676 1.471081 3.025896 6.000000 21 427.081779
0.787820 1.738383 2.875745 7.000000 19 427.081781
0.688923 1.520157 2.074134 4.000000 17 427.081784
0.172254 0.315940 6.044267 88.000000 30 427.081792
0.299290 0.583696 6.064934 83.000000 29 427.081794
0.680476 1.451783 6.206186 11.000000 26 427.081797
0.797263 1.750298 5.284470 10.000000 24 427.081799
0.655562 1.440541 3.334870 6.000000 22 427.081802
0.818153 1.798630 3.302253 7.000000 20 427.081805
0.789802 1.736299 2.599675 6.000000 18 427.081807
0.691108 1.519327 1.887750 8.000000 16 427.081810
0.697547 1.544195 1.744911 8.000000 15 427.081767
0.714403 1.581503 1.481168 9.000000 13 427.081770
0.724156 1.602349 1.237461 7.000000 11 427.081772
0.942034 2.084441 1.283418 7.000000 9 427.081775
1.131032 2.501472 1.197486 34.000000 7 427.081778
1.148898 2.539804 0.908785 32.000000 5 427.081780
1.172231 2.591385 0.631459 35.000000 3 427.081783
1.205211 2.663054 0.354857 32.000000 1 427.081785
0.706453 1.557387 1.603751 9.000000 14 427.081793
0.705714 1.555750 1.327454 8.000000 12 427.081796
0.818528 1.803611 1.249056 7.000000 10 427.081798
1.137075 2.505511 1.359396 37.000000 8 427.081801
1.144318 2.520303 1.051955 35.000000 6 427.081803
1.161991 2.558040 0.768353 36.000000 4 427.081806
1.188318 2.614785 0.492294 34.000000 2 427.081808
1.224036 2.692132 0.212972 27.000000 0 427.081811
0.039424 0.053284 6.049043 90.000000 31 427.081822
0.417907 0.857727 6.065834 83.000000 28 427.081824
0.554510 1.134817 6.095819 85.000000 27 427.081827
0.760992 1.638918 5.820338 9.000000 25 427.081829
0.834516 1.823632 4.784242 10.000000 23 427.081832
0.672803 1.470923 3.030284 6.000000 21 427.081834
0.793883 1.735622 2.875745 7.000000 19 427.081837
0.694225 1.517743 2.074134 4.000000 17 427.081839
0.173356 0.315337 6.044267 90.000000 30 427.081847
0.301326 0.582648 6.064934 84.000000 29 427.081850
0.684463 1.447125 6.196508 16.000000 26 427.081852
0.799763 1.739665 5.261006 9.000000 24 427.081855
0.670585 1.460012 3.384380 10.000000 22 427.081857
0.833131 1.814724 3.336380 7.000000 20 427.081860
0.779511 1.697924 2.547812 3.000000 18 427.081863
0.693578 1.510743 1.880400 9.000000 16 427.081865
0.699974 1.535261 1.737902 8.000000 15 427.081823
0.716689 1.571915 1.474892 8.000000 13 427.081825
0.728009 1.596007 1.234720 7.000000 11 427.081828
0.949305 2.081140 1.283418 7.000000 9 427.081831
1.133983 2.484856 1.191867 34.000000 7 427.081833
1.149787 2.518322 0.903148 33.000000 5 427.081836
1.173109 2.569403 0.627729 35.000000 3 427.081838
1.204154 2.636182 0.352625 32.000000 1 427.081841
0.708776 1.548120 1.597101 9.000000 14 427.081849
0.711140 1.553278 1.327454 8.000000 12 427.081851
0.824819 1.800743 1.249056 7.000000 10 427.081854
1.138253 2.485021 1.351003 37.000000 8 427.081856
1.145239 2.499120 1.045385 35.000000 6 427.081859
1.162810 2.536295 0.763663 36.000000 4 427.081861
1.189179 2.592616 0.489534 34.000000 2 427.081864
1.225091 2.669680 0.212166 27.000000 0 427.081866
0.039609 0.053146 6.049043 90.000000 31 427.081877
0.420555 0.855566 6.060894 83.000000 28 427.081880
0.558918 1.133788 6.100714 84.000000 27 427.081882
0.763539 1.629490 5.796479 9.000000 25 427.081885
0.835962 1.810066 4.756628 9.000000 23 427.081887
0.678938 1.470741 3.034673 6.000000 21 427.081890
0.799937 1.732840 2.875745 8.000000 19 427.081892
0.699519 1.515310 2.074134 5.000000 17 427.081895
0.174455 0.314730 6.044267 89.000000 30 427.081903
0.303358 0.581593 6.064934 84.000000 29 427.081905
0.688969 1.443592 6.191669 18.000000 26 427.081908
0.801473 1.727471 5.232849 10.000000 24 427.081910
0.687583 1.483347 3.442891 7.000000 22 427.081913
0.841654 1.816538 3.344912 7.000000 20 427.081916
0.770228 1.662377 2.499937 3.000000 18 427.081918
0.697422 1.505237 1.876725 10.000000 16 427.081921
0.702347 1.526329 1.730893 8.000000 15 427.081878
0.718917 1.562331 1.468617 8.000000 13 427.081881
0.733576 1.593456 1.234720 7.000000 11 427.081883
0.958416 2.081838 1.285736 7.000000 9 427.081886
1.134892 2.464040 1.184375 34.000000 7 427.081889
1.150540 2.496865 0.897511 33.000000 5 427.081891
1.173847 2.547447 0.623998 35.000000 3 427.081894
1.205009 2.613872 0.350841 33.000000 1 427.081896
0.711043 1.538857 1.590452 10.000000 14 427.081904
0.716558 1.550786 1.327454 8.000000 12 427.081907
0.831100 1.797853 1.249056 7.000000 10 427.081909
1.141208 2.468674 1.344709 38.000000 8 427.081912
1.146026 2.477962 1.038814 35.000000 6 427.081914
1.163492 2.514575 0.758974 37.000000 4 427.081917
1.189901 2.570473 0.486775 34.000000 2 427.081919
1.226005 2.647254 0.211359 27.000000 0 427.081922
0.039795 0.053008 6.049043 88.000000 31 427.081933
0.423539 0.854093 6.060894 86.000000 28 427.081935
0.562873 1.131830 6.100714 72.000000 27 427.081938
0.766030 1.620064 5.772621 9.000000 25 427.081940
0.838148 1.798283 4.733615 10.000000 23 427.081943
0.685079 1.470534 3.039062 6.000000 21 427.081945
0.807169 1.732588 2.879877 7.000000 19 427.081948
0.704804 1.512859 2.074134 6.000000 17 427.081951
0.175553 0.314119 6.044267 89.000000 30 427.081958
0.305386 0.580530 6.064934 84.000000 29 427.081961
0.692912 1.438912 6.181990 21.000000 26 427.081963
0.803840 1.716848 5.209385 10.000000 24 427.081966
0.693680 1.482911 3.447391 6.000000 22 427.081969
0.877816 1.877377 3.460092 9.000000 20 427.081971
0.758154 1.621455 2.444084 3.000000 18 427.081974
0.701236 1.499722 1.873049 10.000000 16 427.081976
0.706169 1.520633 1.727389 9.000000 15 427.081934
0.722726 1.556281 1.465479 8.000000 13 427.081936
0.739134 1.590886 1.234720 7.000000 11 427.081939
0.965677 2.078480 1.285736 7.000000 9 427.081942
1.135670 2.443248 1.176883 35.000000 7 427.081944
1.151157 2.475434 0.891875 33.000000 5 427.081947
1.176518 2.529971 0.621200 35.000000 3 427.081949
1.203622 2.587073 0.348610 32.000000 1 427.081952
0.713254 1.529597 1.583802 10.000000 14 427.081960
0.721967 1.548275 1.327454 8.000000 12 427.081962
0.837370 1.794941 1.249056 7.000000 10 427.081965
1.142143 2.448224 1.336317 38.000000 8 427.081967
1.146680 2.456830 1.032243 36.000000 6 427.081970
1.166093 2.497286 0.755457 37.000000 4 427.081972
1.190482 2.548357 0.484016 35.000000 2 427.081975
1.226777 2.624854 0.210553 28.000000 0 427.081977
0.039980 0.052869 6.049043 88.000000 31 427.081988
0.426518 0.852609 6.060894 86.000000 28 427.081991
0.566820 1.129858 6.100714 72.000000 27 427.081993
0.768464 1.610640 5.748762 9.000000 25 427.081996
0.839431 1.784739 4.705999 10.000000 23 427.081998
0.692247 1.472470 3.047839 7.000000 21 427.082001
0.813212 1.729760 2.879877 7.000000 19 427.082003
0.711444 1.513291 2.077971 6.000000 17 427.082006
0.176648 0.313504 6.044267 90.000000 30 427.082014
0.307411 0.579461 6.064934 85.000000 29 427.082016
0.697380 1.435353 6.177151 28.000000 26 427.082019
0.806141 1.706230 5.185922 10.000000 24 427.082021
0.699781 1.482450 3.451892 6.000000 22 427.082024
0.919977 1.949778 3.596602 14.000000 20 427.082027
0.767667 1.626976 2.456053 5.000000 18 427.082029
0.707914 1.500331 1.876725 13.000000 16 427.082032
0.709959 1.514930 1.723884 9.000000 15 427.081989
0.724850 1.546699 1.459203 9.000000 13 427.081992
0.746458 1.592082 1.237461 7.000000 11 427.081995
0.974807 2.079108 1.288054 7.000000 9 427.081997
1.136317 2.422480 1.169391 35.000000 7 427.082000
1.151638 2.454029 0.886238 34.000000 5 427.082002
1.176995 2.508061 0.617470 35.000000 3 427.082005
1.204179 2.564825 0.346825 33.000000 1 427.082007
0.716999 1.523719 1.580477 10.000000 14 427.082015
0.727367 1.545746 1.327454 8.000000 12 427.082018
0.845467 1.795907 1.251589 7.000000 10 427.082020
1.142949 2.427797 1.327925 47.000000 8 427.082023
1.147200 2.435723 1.025672 36.000000 6 427.082025
1.166516 2.475613 0.750768 37.000000 4 427.082028
1.190924 2.526268 0.481257 35.000000 2 427.082030
1.227407 2.602482 0.209747 28.000000 0 427.082033
0.040192 0.052762 6.054043 88.000000 31 427.082044
0.429491 0.851115 6.060894 86.000000 28 427.082046
0.571220 1.128781 6.105609 79.000000 27 427.082049
0.770842 1.601220 5.724904 8.000000 25 427.082051
0.841468 1.772973 4.682987 10.000000 23 427.082054
0.700463 1.476538 3.061005 8.000000 21 427.082056
0.820451 1.729453 2.884011 8.000000 19 427.082059
0.718096 1.513695 2.081807 6.000000 17 427.082062
0.177741 0.312886 6.044267 88.000000 30 427.082069
0.309432 0.578384 6.064934 83.000000 29 427.082072
0.701279 1.430651 6.167473 35.000000 26 427.082074
0.807637 1.694060 5.157765 10.000000 24 427.082077
0.706825 1.483930 3.460894 6.000000 22 427.082080
0.926777 1.946555 3.596602 14.000000 20 427.082082
0.765568 1.607958 2.432116 7.000000 18 427.082085
0.713147 1.497851 1.876725 12.000000 16 427.082087
0.715243 1.512442 1.723884 13.000000 15 427.082045
0.728581 1.540640 1.456065 10.000000 13 427.082047
0.752011 1.589466 1.237461 7.000000 11 427.082050
0.989638 2.091711 1.297326 7.000000 9 427.082053
1.136832 2.401738 1.161899 35.000000 7 427.082055
1.151985 2.432651 0.880601 34.000000 5 427.082058
1.177333 2.486179 0.613739 35.000000 3 427.082060
1.204596 2.542603 0.345040 33.000000 1 427.082063
0.720712 1.517833 1.577152 10.000000 14 427.082071
0.732758 1.543197 1.327454 8.000000 12 427.082073
0.851731 1.792945 1.251589 7.000000 10 427.082076
1.143627 2.407394 1.319533 38.000000 8 427.082078
1.147587 2.414642 1.019102 36.000000 6 427.082081
1.166801 2.453967 0.746078 37.000000 4 427.082083
1.191225 2.504207 0.478497 35.000000 2 427.082086
1.230044 2.584648 0.209143 29.000000 0 427.082089
0.040376 0.052621 6.054043 88.000000 31 427.082099
0.432460 0.849611 6.060894 86.000000 28 427.082102
0.575157 1.126781 6.105609 79.000000 27 427.082104
0.773164 1.591802 5.701045 8.000000 25 427.082107
0.842588 1.759453 4.655372 10.000000 23 427.082109
0.709751 1.482728 3.078559 8.000000 21 427.082112
0.826483 1.726579 2.884011 8.000000 19 427.082115
0.724760 1.514071 2.085644 7.000000 17 427.082117
0.178833 0.312264 6.044267 88.000000 30 427.082125
0.311449 0.577301 6.064934 83.000000 29 427.082127
0.705711 1.427067 6.162633 38.000000 26 427.082130
0.809805 1.683455 5.134301 10.000000 24 427.082133
0.712944 1.483416 3.465394 6.000000 22 427.082135
0.932437 1.940957 3.592336 19.000000 20 427.082138
0.768566 1.599843 2.424137 9.000000 18 427.082140
0.721307 1.501464 1.884075 9.000000 16 427.082143
0.718982 1.506718 1.720379 11.000000 15 427.082100
0.733954 1.538088 1.456065 11.000000 13 427.082103
0.759356 1.590605 1.240203 7.000000 11 427.082106
0.998842 2.092241 1.299644 7.000000 9 427.082108
1.137217 2.381022 1.154407 34.000000 7 427.082111
1.152196 2.411301 0.874964 34.000000 5 427.082113
1.177533 2.464325 0.610009 35.000000 3 427.082116
1.204872 2.520411 0.343255 33.000000 1 427.082118
0.726005 1.515308 1.577152 10.000000 14 427.082126
0.738141 1.540630 1.327454 7.000000 12 427.082129
0.857984 1.789961 1.251589 7.000000 10 427.082131
1.144176 2.387017 1.311140 38.000000 8 427.082134
1.149883 2.397848 1.014174 35.000000 6 427.082136
1.166950 2.432349 0.741389 37.000000 4 427.082139
1.191388 2.482176 0.475738 35.000000 2 427.082141
1.232570 2.566828 0.208538 30.000000 0 427.082144
0.040560 0.052480 6.054043 88.000000 31 427.082155
0.435423 0.848096 6.060894 86.000000 28 427.082157
0.579087 1.124766 6.105609 77.000000 27 427.082160
0.774772 1.581047 5.672414 9.000000 25 427.082162
0.844475 1.747706 4.632359 9.000000 23 427.082165
0.718048 1.486713 3.091726 4.000000 21 427.082167
0.832505 1.723683 2.884011 8.000000 19 427.082170
0.731435 1.514418 2.089481 7.000000 17 427.082173
0.179921 0.311637 6.044267 88.000000 30 427.082180
0.313462 0.576210 6.064934 85.000000 29 427.082183
0.710126 1.423469 6.157794 47.000000 26 427.082185
0.811909 1.672855 5.110837 10.000000 24 427.082188
0.719068 1.482878 3.469896 6.000000 22 427.082191
0.935794 1.930650 3.579538 18.000000 20 427.082193
0.772831 1.594438 2.420147 9.000000 18 427.082196
0.728022 1.501988 1.887750 6.000000 16 427.082198
0.725784 1.507412 1.723884 8.000000 15 427.082156
0.737630 1.532009 1.452928 12.000000 13 427.082159
0.764903 1.587945 1.240203 7.000000 11 427.082161
1.054204 2.188524 1.357594 10.000000 9 427.082164
1.139484 2.364509 1.148787 34.000000 7 427.082166
1.154356 2.394301 0.870737 34.000000 5 427.082169
1.179728 2.446925 0.607211 36.000000 3 427.082171
1.205009 2.498248 0.341470 33.000000 1 427.082174
0.729665 1.509403 1.573828 11.000000 14 427.082182
0.743514 1.538044 1.327454 7.000000 12 427.082184
0.864227 1.786955 1.251589 7.000000 10 427.082187
1.142622 2.362580 1.300650 38.000000 8 427.082189
1.150018 2.376815 1.007603 36.000000 6 427.082192
1.169080 2.415136 0.737872 38.000000 4 427.082194
1.189253 2.455717 0.472289 35.000000 2 427.082197
1.232810 2.544526 0.207732 30.000000 0 427.082200
0.040743 0.052338 6.054043 88.000000 31 427.082210
0.438381 0.846571 6.060894 86.000000 28 427.082213
0.583009 1.122738 6.105609 77.000000 27 427.082215
0.776976 1.571639 5.648556 9.000000 25 427.082218
0.846290 1.735967 4.609346 9.000000 23 427.082220
0.727431 1.492812 3.109280 4.000000 21 427.082223
0.838516 1.720767 2.884011 8.000000 19 427.082226
0.736717 1.511856 2.089481 7.000000 17 427.082228
0.181008 0.311008 6.044267 88.000000 30 427.082236
0.315471 0.575112 6.064934 85.000000 29 427.082238
0.713960 1.418735 6.148116 56.000000 26 427.082241
0.813948 1.662262 5.087373 10.000000 24 427.082244
0.725455 1.482189 3.474396 6.000000 22 427.082246
0.939425 1.920179 3.566740 18.000000 20 427.082249
0.778670 1.591595 2.420147 11.000000 18 427.082251
0.735012 1.502355 1.891425 6.000000 16 427.082254
0.731041 1.504870 1.723884 6.000000 15 427.082211
0.742973 1.529425 1.452928 12.000000 13 427.082214
0.770442 1.585265 1.240203 7.000000 11 427.082217
1.110249 2.284445 1.415545 13.000000 9 427.082219
1.139622 2.343840 1.141295 35.000000 7 427.082222
1.154312 2.373001 0.865100 34.000000 5 427.082224
1.180090 2.424917 0.603481 36.000000 3 427.082227
1.205437 2.475904 0.339685 33.000000 1 427.082229
0.736830 1.510074 1.577152 11.000000 14 427.082237
0.750918 1.538941 1.330397 8.000000 12 427.082240
0.872662 1.787650 1.254121 7.000000 10 427.082242
1.141318 2.337984 1.290160 36.000000 8 427.082245
1.152505 2.359854 1.002675 36.000000 6 427.082247
1.169389 2.393366 0.733183 37.000000 4 427.082250
1.189546 2.433545 0.469530 36.000000 2 427.082253
1.235102 2.526742 0.207127 31.000000 0 427.082255
0.040934 0.052188 6.054043 88.000000 31 427.082266
0.441480 0.844958 6.060894 86.000000 28 427.082268
0.587121 1.120593 6.105609 77.000000 27 427.082271
0.780063 1.563435 5.629469 9.000000 25 427.082273
0.848334 1.724089 4.586334 10.000000 23 427.082276
0.733955 1.492286 3.113669 5.000000 21 427.082279
0.844818 1.717682 2.884011 8.000000 19 427.082281
0.743668 1.512022 2.093318 7.000000 17 427.082284
0.182147 0.310342 6.044267 89.000000 30 427.082291
0.317577 0.573952 6.064934 83.000000 29 427.082294
0.717446 1.412744 6.133598 67.000000 26 427.082297
0.816212 1.651532 5.063910 10.000000 24 427.082299
0.732553 1.483553 3.483398 6.000000 22 427.082302
0.941505 1.907533 3.549676 18.000000 20 427.082304
0.784221 1.588867 2.420147 13.000000 18 427.082307
0.740252 1.499780 1.891425 6.000000 16 427.082309
0.738122 1.505382 1.727389 6.000000 15 427.082267
0.748574 1.526691 1.452928 12.000000 13 427.082270
0.776247 1.582431 1.240203 7.000000 11 427.082272
1.120566 2.284338 1.417863 13.000000 9 427.082275
1.142077 2.327162 1.135676 36.000000 7 427.082277
1.154545 2.351529 0.859463 34.000000 5 427.082280
1.182052 2.407555 0.600683 36.000000 3 427.082282
1.205290 2.453801 0.337901 34.000000 1 427.082285
0.742097 1.507493 1.577152 6.000000 14 427.082293
0.756286 1.536311 1.330397 8.000000 12 427.082295
0.878897 1.784593 1.254121 7.000000 10 427.082298
1.141452 2.317699 1.281768 37.000000 8 427.082300
1.154474 2.343108 0.997747 36.000000 6 427.082303
1.171289 2.376191 0.729666 37.000000 4 427.082305
1.191463 2.416054 0.467460 36.000000 2 427.082308
1.235513 2.504277 0.206321 31.000000 0 427.082311
0.041116 0.052045 6.054043 88.000000 31 427.082321
0.444427 0.843412 6.060894 86.000000 28 427.082324
0.591029 1.118537 6.105609 77.000000 27 427.082326
0.782159 1.554032 5.605610 9.000000 25 427.082329
0.850872 1.714118 4.567924 10.000000 23 427.082331
0.741289 1.494007 3.122446 6.000000 21 427.082334
0.852059 1.717243 2.888143 8.000000 19 427.082336
0.750366 1.512289 2.097155 7.000000 17 427.082339
0.183229 0.309704 6.044267 88.000000 30 427.082347
0.319579 0.572840 6.064934 83.000000 29 427.082349
0.721226 1.407993 6.123920 72.000000 26 427.082352
0.818892 1.642496 5.045139 10.000000 24 427.082354
0.739669 1.484885 3.492399 6.000000 22 427.082357
0.943508 1.894897 3.532613 18.000000 20 427.082359
0.789762 1.586120 2.420147 15.000000 18 427.082362
0.746994 1.500221 1.895101 6.000000 16 427.082365
0.743372 1.502796 1.727389 6.000000 15 427.082322
0.753898 1.524069 1.452928 6.000000 13 427.082325
0.781766 1.579711 1.240203 7.000000 11 427.082327
1.124603 2.272471 1.413227 21.000000 9 427.082330
1.144023 2.310697 1.130057 36.000000 7 427.082333
1.156358 2.334588 0.855236 34.000000 5 427.082335
1.181728 2.385807 0.596952 36.000000 3 427.082338
1.205003 2.431731 0.336116 34.000000 1 427.082340
0.749015 1.508238 1.580477 6.000000 14 427.082348
0.763442 1.537281 1.333341 8.000000 12 427.082351
0.885121 1.781514 1.254121 7.000000 10 427.082353
1.139438 2.293378 1.271277 36.000000 8 427.082356
1.154238 2.322149 0.991176 37.000000 6 427.082358
1.170920 2.354679 0.724977 38.000000 4 427.082361
1.191066 2.394145 0.464701 32.000000 2 427.082363
1.233117 2.477586 0.205314 30.000000 0 427.082366
0.041268 0.051869 6.049043 89.000000 31 427.082377
0.447369 0.841856 6.060894 86.000000 28 427.082379
0.594929 1.116467 6.105609 77.000000 27 427.082382
0.784197 1.544634 5.581752 9.000000 25 427.082384
0.853352 1.704150 4.549513 10.000000 23 427.082387
0.747572 1.493552 3.126835 7.000000 21 427.082389
0.859308 1.716775 2.892276 7.000000 19 427.082392
0.757076 1.512528 2.100992 7.000000 17 427.082394
0.184255 0.309095 6.044267 89.000000 30 427.082402
0.321477 0.571777 6.064934 83.000000 29 427.082405
0.724159 1.402241 6.109402 81.000000 26 427.082407
0.820459 1.632062 5.021675 10.000000 24 427.082410
0.746804 1.486186 3.501401 6.000000 22 427.082412
0.941922 1.875278 3.502751 17.000000 20 427.082415
0.795294 1.583354 2.420147 15.000000 18 427.082418
0.751965 1.497736 1.895101 6.000000 16 427.082420
0.750206 1.503383 1.730893 6.000000 15 427.082378
0.760952 1.524912 1.456065 6.000000 13 427.082380
0.785408 1.573232 1.237461 7.000000 11 427.082383
1.120656 2.244749 1.399319 29.000000 9 427.082385
1.143396 2.290300 1.122565 36.000000 7 427.082388
1.157663 2.317865 0.851008 34.000000 5 427.082391
1.183462 2.368484 0.594154 36.000000 3 427.082393
1.204577 2.409692 0.334331 34.000000 1 427.082396
0.755948 1.508953 1.583802 6.000000 14 427.082403
0.770614 1.538221 1.336284 7.000000 12 427.082406
0.891024 1.778569 1.254121 7.000000 10 427.082409
1.138905 2.273356 1.262885 37.000000 8 427.082411
1.155584 2.305642 0.986248 37.000000 6 427.082414
1.172185 2.337748 0.721460 38.000000 4 427.082416
1.190117 2.372476 0.461942 32.000000 2 427.082419
1.232363 2.455622 0.204507 30.000000 0 427.082421
0.041440 0.051732 6.049043 88.000000 31 427.082432
0.450525 0.841052 6.065834 86.000000 28 427.082435
0.598629 1.114488 6.105609 76.000000 27 427.082437
0.785912 1.535378 5.557893 9.000000 25 427.082440
0.855476 1.694335 4.531104 10.000000 23 427.082442
0.753600 1.493204 3.131223 7.000000 21 427.082445
0.864996 1.713916 2.892276 6.000000 19 427.082447
0.763532 1.512871 2.104829 7.000000 17 427.082450
0.185333 0.308450 6.044267 89.000000 30 427.082458
0.323734 0.571116 6.069906 85.000000 29 427.082460
0.729631 1.400820 6.114241 81.000000 26 427.082463
0.823029 1.623032 5.002904 10.000000 24 427.082465
0.753956 1.487455 3.510403 6.000000 22 427.082468
0.937854 1.851040 3.464358 12.000000 20 427.082471
0.800816 1.580568 2.420147 15.000000 18 427.082473
0.758981 1.497994 1.898776 6.000000 16 427.082476
0.756790 1.504073 1.734398 6.000000 15 427.082433
0.766004 1.522380 1.456065 6.000000 13 427.082436
0.790620 1.570619 1.237461 7.000000 11 427.082438
1.124110 2.233106 1.394683 34.000000 9 427.082441
1.145128 2.273874 1.116946 36.000000 7 427.082444
1.159271 2.300957 0.846780 36.000000 5 427.082446
1.182878 2.346793 0.590424 36.000000 3 427.082449
1.204012 2.387685 0.332546 34.000000 1 427.082451
0.762895 1.509638 1.587127 6.000000 14 427.082459
