# .PCD v.7 - Point Cloud Data file format
VERSION .7
FIELDS x y z normal_x normal_y normal_z
SIZE 4 4 4 4 2 4
TYPE F F F F U F
COUNT 1 1 1 1 1 1
WIDTH 943
HEIGHT 1
VIEWPOINT 0 0 0 1 0 0 0
POINTS 943
DATA ascii
0.532519 0.386661 6.084820 81.000000 29 445.689105
0.896484 0.700900 4.415680 10.000000 26 445.689107
0.981976 0.785054 3.473062 19.000000 24 445.689110
1.023297 0.818666 2.772266 33.000000 22 445.689112
1.066263 0.853338 2.304024 36.000000 20 445.689115
1.091597 0.873609 1.925450 37.000000 18 445.689118
1.117896 0.894653 1.630489 39.000000 16 445.689120
1.136778 0.914657 1.513611 39.000000 15 445.689078
1.154915 0.929246 1.277212 39.000000 13 445.689080
1.171426 0.942194 1.070232 40.000000 11 445.689083
1.185206 0.953274 0.882399 44.000000 9 445.689086
1.200138 0.964939 0.710498 46.000000 7 445.689088
1.204300 0.967939 0.543803 43.000000 5 445.689091
1.221394 0.981678 0.388978 44.000000 3 445.689093
1.230502 0.988645 0.234380 36.000000 1 445.689096
1.141799 0.915746 1.384311 39.000000 14 445.689104
1.156092 0.927205 1.162637 39.000000 12 445.689106
1.171960 0.939596 0.967957 43.000000 10 445.689109
1.197729 0.960252 0.797118 53.000000 8 445.689111
1.201758 0.963137 0.624857 49.000000 6 445.689114
1.213995 0.972597 0.465895 52.000000 4 445.689116
1.225224 0.981242 0.310872 38.000000 2 445.689119
1.240020 0.992736 0.157752 39.000000 0 445.689121
0.059210 0.029696 6.044044 17.000000 31 445.689132
0.767886 0.581870 6.125104 65.000000 28 445.689135
0.845869 0.639536 5.121668 12.000000 27 445.689137
0.939654 0.740101 3.868703 12.000000 25 445.689140
0.824456 0.656769 2.542813 4.000000 23 445.689142
1.051379 0.837823 2.529977 32.000000 21 445.689145
1.059068 0.843947 2.061553 12.000000 19 445.689147
1.114694 0.888270 1.782526 38.000000 17 445.689150
0.297161 0.202940 6.044267 94.000000 30 445.689158
0.534299 0.385111 6.089792 80.000000 29 445.689160
0.896937 0.696224 4.406002 10.000000 26 445.689163
0.983359 0.780549 3.468369 19.000000 24 445.689165
1.024443 0.813735 2.767766 32.000000 22 445.689168
1.067194 0.847989 2.299758 36.000000 20 445.689171
1.092280 0.867919 1.921460 37.000000 18 445.689173
1.118358 0.888636 1.626814 39.000000 16 445.689176
1.137178 0.908457 1.510107 39.000000 15 445.689133
1.155110 0.922779 1.274074 39.000000 13 445.689136
1.171441 0.935490 1.067490 40.000000 11 445.689138
1.185064 0.946366 0.880081 44.000000 9 445.689141
1.199876 0.957852 0.708625 44.000000 7 445.689144
1.203922 0.960737 0.542394 40.000000 5 445.689146
1.220973 0.974345 0.388045 42.000000 3 445.689149
1.230052 0.981238 0.233934 35.000000 1 445.689151
1.142068 0.909428 1.380986 39.000000 14 445.689159
1.156160 0.920646 1.159694 39.000000 12 445.689162
1.171860 0.932814 0.965425 45.000000 10 445.689164
1.197523 0.953238 0.795020 53.000000 8 445.689167
1.205113 0.958937 0.624857 49.000000 6 445.689169
1.213579 0.965328 0.464722 50.000000 4 445.689172
1.228642 0.976959 0.310872 38.000000 2 445.689174
1.239566 0.985293 0.157551 39.000000 0 445.689177
0.059313 0.029489 6.044044 17.000000 31 445.689188
0.769912 0.579186 6.125104 64.000000 28 445.689190
0.846467 0.635357 5.111878 12.000000 27 445.689193
0.941056 0.735896 3.863931 12.000000 25 445.689195
0.819082 0.647827 2.519800 6.000000 23 445.689198
1.052418 0.832662 2.525588 33.000000 21 445.689200
1.064215 0.841992 2.065687 8.000000 19 445.689203
1.115273 0.882384 1.778689 37.000000 17 445.689206
0.297868 0.201902 6.044267 92.000000 30 445.689213
0.536074 0.383554 6.094763 78.000000 29 445.689216
0.897369 0.691554 4.396323 10.000000 26 445.689218
0.983367 0.774975 3.458983 19.000000 24 445.689221
1.025567 0.808805 2.763264 31.000000 22 445.689224
1.068100 0.842643 2.295492 36.000000 20 445.689226
1.092937 0.862234 1.917471 38.000000 18 445.689229
1.118791 0.882627 1.623138 39.000000 16 445.689231
1.137548 0.902266 1.506602 39.000000 15 445.689189
1.155274 0.916322 1.270936 39.000000 13 445.689191
1.171422 0.928797 1.064749 40.000000 11 445.689194
1.184889 0.939472 0.877763 44.000000 9 445.689197
1.199579 0.950778 0.706752 46.000000 7 445.689199
1.207268 0.956529 0.542394 40.000000 5 445.689202
1.224367 0.970077 0.388045 44.000000 3 445.689204
1.229566 0.973846 0.233487 35.000000 1 445.689207
1.142306 0.903120 1.377661 39.000000 14 445.689215
1.156195 0.914098 1.156751 40.000000 12 445.689217
1.171726 0.926045 0.962892 44.000000 10 445.689220
1.197282 0.946238 0.792921 53.000000 8 445.689222
1.204747 0.951797 0.623215 49.000000 6 445.689225
1.213127 0.958073 0.463550 50.000000 4 445.689227
1.228158 0.969596 0.310182 38.000000 2 445.689230
1.239076 0.977865 0.157349 39.000000 0 445.689232
0.059416 0.029282 6.044044 18.000000 31 445.689243
0.771307 0.576030 6.120165 58.000000 28 445.689246
0.847047 0.631183 5.102087 12.000000 27 445.689248
0.942439 0.731691 3.859159 12.000000 25 445.689251
0.852070 0.669095 2.611851 7.000000 23 445.689253
1.051550 0.826023 2.516811 33.000000 21 445.689256
1.069360 0.840010 2.069819 6.000000 19 445.689258
1.115826 0.876506 1.774852 37.000000 17 445.689261
0.298571 0.200861 6.044267 92.000000 30 445.689269
0.537846 0.381989 6.099735 77.000000 29 445.689271
0.897780 0.686889 4.386645 10.000000 26 445.689274
0.983348 0.769411 3.449598 19.000000 24 445.689276
1.026670 0.803878 2.758764 31.000000 22 445.689279
1.068981 0.837301 2.291226 36.000000 20 445.689282
1.093567 0.856555 1.913481 37.000000 18 445.689284
1.119197 0.876626 1.619463 39.000000 16 445.689287
1.137889 0.896083 1.503098 39.000000 15 445.689244
1.155407 0.909876 1.267799 39.000000 13 445.689247
1.171372 0.922116 1.062008 40.000000 11 445.689250
1.188161 0.935330 0.877763 45.000000 9 445.689252
1.199247 0.943718 0.704879 46.000000 7 445.689255
1.206829 0.949343 0.540985 43.000000 5 445.689257
1.223885 0.962760 0.387113 42.000000 3 445.689260
1.229043 0.966470 0.233041 35.000000 1 445.689262
1.142514 0.896822 1.374337 39.000000 14 445.689270
1.156200 0.907561 1.153808 39.000000 12 445.689273
1.171560 0.919287 0.960360 44.000000 10 445.689275
1.197007 0.939252 0.790823 52.000000 8 445.689278
1.204346 0.944671 0.621572 49.000000 6 445.689280
1.212639 0.950833 0.462378 50.000000 4 445.689283
1.227637 0.962248 0.309493 38.000000 2 445.689285
1.238550 0.970452 0.157148 39.000000 0 445.689288
0.059518 0.029074 6.044044 19.000000 31 445.689299
0.773313 0.573334 6.120165 58.000000 28 445.689301
0.847607 0.627012 5.092297 12.000000 27 445.689304
0.943804 0.727485 3.854388 12.000000 25 445.689306
0.920653 0.717768 2.809759 11.000000 23 445.689309
1.052538 0.820874 2.512422 33.000000 21 445.689311
1.072286 0.836272 2.069819 6.000000 19 445.689314
1.116350 0.870634 1.771015 37.000000 17 445.689317
0.299270 0.199817 6.044267 92.000000 30 445.689324
0.539612 0.380417 6.104706 73.000000 29 445.689327
0.899170 0.682990 4.381806 10.000000 26 445.689329
0.984665 0.764915 3.444905 20.000000 24 445.689332
1.027750 0.798953 2.754263 32.000000 22 445.689335
1.069839 0.831964 2.286960 36.000000 20 445.689337
1.094171 0.850882 1.909492 37.000000 18 445.689340
1.119574 0.870633 1.615788 39.000000 16 445.689342
1.138200 0.889909 1.499593 39.000000 15 445.689300
1.155509 0.903439 1.264661 39.000000 13 445.689302
1.171289 0.915447 1.059266 40.000000 11 445.689305
1.187928 0.928449 0.875445 45.000000 9 445.689308
1.198881 0.936672 0.703006 46.000000 7 445.689310
1.210136 0.945125 0.540985 45.000000 5 445.689313
1.223367 0.955458 0.386180 44.000000 3 445.689315
1.232409 0.962174 0.233041 35.000000 1 445.689318
1.142692 0.890532 1.371012 39.000000 14 445.689326
1.156172 0.901035 1.150865 39.000000 12 445.689328
1.171361 0.912543 0.957827 44.000000 10 445.689331
1.196698 0.932278 0.788725 52.000000 8 445.689333
1.203911 0.937560 0.619929 48.000000 6 445.689336
1.212115 0.943609 0.461205 52.000000 4 445.689338
1.227081 0.954915 0.308803 37.000000 2 445.689341
1.237987 0.963056 0.156946 39.000000 0 445.689344
0.059659 0.028883 6.049043 20.000000 31 445.689354
0.774683 0.570171 6.115226 56.000000 28 445.689357
0.848149 0.622844 5.082507 12.000000 27 445.689359
0.943965 0.722371 3.844844 12.000000 25 445.689362
0.998855 0.773143 3.035283 14.000000 23 445.689364
1.051608 0.814262 2.503645 33.000000 21 445.689367
1.077424 0.834247 2.073952 6.000000 19 445.689370
1.116848 0.864769 1.767178 37.000000 17 445.689372
0.299966 0.198772 6.044267 92.000000 30 445.689380
0.541375 0.378836 6.109677 70.000000 29 445.689382
0.899540 0.678333 4.372128 10.000000 26 445.689385
0.984596 0.759366 3.435520 20.000000 24 445.689388
1.027085 0.792699 2.745261 33.000000 22 445.689390
1.070672 0.826630 2.282694 36.000000 20 445.689393
1.092363 0.843374 1.901513 37.000000 18 445.689395
1.119923 0.864648 1.612113 39.000000 16 445.689398
1.135666 0.881557 1.492584 39.000000 15 445.689355
1.155581 0.897013 1.261523 39.000000 13 445.689358
1.171174 0.908789 1.056525 40.000000 11 445.689361
1.187662 0.921580 0.873127 44.000000 9 445.689363
1.198480 0.929640 0.701133 46.000000 7 445.689366
1.209636 0.937955 0.539576 45.000000 5 445.689368
1.222812 0.948172 0.385247 44.000000 3 445.689371
1.231824 0.954816 0.232595 34.000000 1 445.689373
1.142840 0.884253 1.367687 39.000000 14 445.689381
1.156114 0.894520 1.147921 39.000000 12 445.689384
1.171129 0.905811 0.955295 42.000000 10 445.689386
1.199945 0.928095 0.788725 52.000000 8 445.689389
1.203440 0.930463 0.618286 48.000000 6 445.689391
1.211555 0.936400 0.460033 50.000000 4 445.689394
1.226488 0.947599 0.308113 37.000000 2 445.689396
1.241341 0.958728 0.156946 39.000000 0 445.689399
0.059760 0.028675 6.049043 20.000000 31 445.689410
0.776041 0.567005 6.110286 56.000000 28 445.689412
0.848672 0.618681 5.072716 6.000000 27 445.689415
0.945292 0.718168 3.840073 12.000000 25 445.689417
0.999999 0.768462 3.030680 15.000000 23 445.689420
1.052545 0.809126 2.499256 33.000000 21 445.689422
1.080329 0.830481 2.073952 12.000000 19 445.689425
1.114776 0.856957 1.759504 37.000000 17 445.689428
0.300900 0.197882 6.049259 92.000000 30 445.689435
0.543133 0.377248 6.114649 66.000000 29 445.689438
0.900895 0.674435 4.367288 10.000000 26 445.689440
0.984500 0.753826 3.426134 20.000000 24 445.689443
1.028117 0.787785 2.740760 33.000000 22 445.689446
1.071481 0.821301 2.278428 36.000000 20 445.689448
1.092909 0.837722 1.897523 37.000000 18 445.689451
1.120243 0.858671 1.608438 39.000000 16 445.689453
1.138736 0.877588 1.492584 39.000000 15 445.689411
1.158705 0.892974 1.261523 39.000000 13 445.689414
1.174339 0.904696 1.056525 40.000000 11 445.689416
1.187362 0.914725 0.870809 45.000000 9 445.689419
1.198045 0.922622 0.699260 46.000000 7 445.689421
1.209102 0.930801 0.538167 43.000000 5 445.689424
1.226115 0.943898 0.385247 44.000000 3 445.689426
1.231203 0.947473 0.232149 34.000000 1 445.689429
1.142958 0.877984 1.364362 39.000000 14 445.689437
1.156024 0.888017 1.144978 39.000000 12 445.689439
1.170864 0.899092 0.952762 44.000000 10 445.689442
1.195978 0.918373 0.784529 52.000000 8 445.689444
1.202934 0.923381 0.616644 48.000000 6 445.689447
1.210961 0.929206 0.458861 52.000000 4 445.689449
1.225858 0.940298 0.307423 37.000000 2 445.689452
1.240715 0.951349 0.156745 39.000000 0 445.689455
0.059859 0.028466 6.049043 21.000000 31 445.689465
0.777386 0.563837 6.105347 54.000000 28 445.689468
0.850001 0.615118 5.067821 6.000000 27 445.689470
0.945408 0.713066 3.830529 12.000000 25 445.689473
1.004228 0.766151 3.035283 22.000000 23 445.689475
1.053458 0.803993 2.494868 33.000000 21 445.689478
1.083221 0.826705 2.073952 25.000000 19 445.689481
1.115212 0.851116 1.755667 37.000000 17 445.689483
0.301589 0.196830 6.049259 92.000000 30 445.689491
0.544446 0.375350 6.114649 60.000000 29 445.689493
0.902234 0.670536 4.362449 10.000000 26 445.689496
0.984378 0.748296 3.416749 20.000000 24 445.689499
1.027394 0.781554 2.731759 30.000000 22 445.689501
1.070190 0.814398 2.269897 36.000000 20 445.689504
1.093428 0.832077 1.893534 37.000000 18 445.689506
1.120536 0.852702 1.604763 39.000000 16 445.689509
1.138960 0.871440 1.489079 39.000000 15 445.689466
1.158723 0.886558 1.258385 39.000000 13 445.689469
1.174168 0.898051 1.053783 40.000000 11 445.689472
1.187029 0.907884 0.868491 45.000000 9 445.689474
1.201258 0.918435 0.699260 44.000000 7 445.689477
1.208532 0.923661 0.536757 43.000000 5 445.689479
1.225499 0.936629 0.384315 40.000000 3 445.689482
1.230546 0.940146 0.231703 35.000000 1 445.689484
1.143046 0.871724 1.361037 39.000000 14 445.689492
1.155903 0.881525 1.142035 39.000000 12 445.689495
1.173995 0.894999 0.952762 44.000000 10 445.689497
1.195567 0.911441 0.782431 50.000000 8 445.689500
1.202394 0.916314 0.615001 48.000000 6 445.689502
1.210330 0.922028 0.457688 49.000000 4 445.689505
1.229133 0.936013 0.307423 37.000000 2 445.689508
1.240053 0.943987 0.156543 40.000000 0 445.689510
0.059958 0.028257 6.049043 24.000000 31 445.689521
0.778719 0.560666 6.100408 38.000000 28 445.689523
0.850489 0.610960 5.058030 6.000000 27 445.689526
0.945500 0.707971 3.820986 12.000000 25 445.689528
1.005339 0.761461 3.030680 21.000000 23 445.689531
1.054349 0.798864 2.490479 33.000000 21 445.689534
1.083858 0.821219 2.069819 33.000000 19 445.689536
1.115621 0.845282 1.751830 37.000000 17 445.689539
0.302274 0.195776 6.049259 91.000000 30 445.689546
0.545753 0.373447 6.114649 48.000000 29 445.689549
0.903557 0.666636 4.357610 10.000000 26 445.689552
0.985606 0.743816 3.412056 20.000000 24 445.689554
1.028378 0.776651 2.727258 30.000000 22 445.689557
1.070946 0.809085 2.265630 36.000000 20 445.689559
1.093921 0.826439 1.889544 37.000000 18 445.689562
1.120800 0.846742 1.601087 39.000000 16 445.689564
1.139155 0.865302 1.485575 39.000000 15 445.689522
1.158711 0.880153 1.255248 39.000000 13 445.689525
1.173966 0.891418 1.051042 40.000000 11 445.689527
1.186662 0.901056 0.866173 45.000000 9 445.689530
1.200764 0.911433 0.697387 44.000000 7 445.689532
1.211749 0.919437 0.536757 45.000000 5 445.689535
1.224848 0.929376 0.383382 44.000000 3 445.689537
1.229852 0.932835 0.231256 35.000000 1 445.689540
1.143105 0.865475 1.357712 39.000000 14 445.689548
1.155750 0.875045 1.139092 40.000000 12 445.689550
1.173675 0.888294 0.950230 44.000000 10 445.689553
1.198742 0.907262 0.782431 52.000000 8 445.689555
1.205585 0.912111 0.615001 48.000000 6 445.689558
1.213541 0.917797 0.457688 49.000000 4 445.689560
1.228443 0.928730 0.306733 37.000000 2 445.689563
1.239355 0.936640 0.156342 39.000000 0 445.689566
0.060057 0.028047 6.049043 26.000000 31 445.689576
0.780039 0.557493 6.095469 38.000000 28 445.689579
0.851787 0.607397 5.053135 6.000000 27 445.689581
0.945568 0.702884 3.811442 12.000000 25 445.689584
1.004868 0.755599 3.021475 23.000000 23 445.689586
1.055216 0.793739 2.486090 33.000000 21 445.689589
1.086717 0.817431 2.069819 36.000000 19 445.689591
1.116003 0.839455 1.747993 37.000000 17 445.689594
0.302956 0.194720 6.049259 91.000000 30 445.689602
0.546611 0.371241 6.109677 42.000000 29 445.689604
0.903849 0.661992 4.347931 10.000000 26 445.689607
0.985435 0.738302 3.402670 20.000000 24 445.689609
1.029341 0.771750 2.722757 30.000000 22 445.689612
1.069590 0.802212 2.257098 36.000000 20 445.689614
1.094388 0.820807 1.885555 37.000000 18 445.689617
1.121037 0.840791 1.597412 39.000000 16 445.689620
1.139321 0.859173 1.482070 39.000000 15 445.689577
1.158668 0.873760 1.252110 39.000000 13 445.689580
1.173731 0.884798 1.048300 40.000000 11 445.689582
1.186263 0.894241 0.863855 45.000000 9 445.689585
1.200236 0.904446 0.695514 42.000000 7 445.689588
1.211119 0.912315 0.535348 43.000000 5 445.689590
1.224161 0.922140 0.382450 40.000000 3 445.689593
1.229122 0.925541 0.230810 35.000000 1 445.689595
1.143134 0.859235 1.354388 39.000000 14 445.689603
1.155566 0.868577 1.136149 39.000000 12 445.689606
1.173322 0.881602 0.947698 42.000000 10 445.689608
1.198273 0.900346 0.780333 53.000000 8 445.689611
1.204986 0.905061 0.613358 48.000000 6 445.689613
1.212850 0.910637 0.456516 51.000000 4 445.689616
1.227716 0.921464 0.306043 37.000000 2 445.689618
1.238621 0.929310 0.156140 39.000000 0 445.689621
0.060154 0.027837 6.049043 28.000000 31 445.689632
0.781346 0.554317 6.090529 45.000000 28 445.689634
0.851408 0.602656 5.038449 11.000000 27 445.689637
0.946814 0.698693 3.806670 11.000000 25 445.689639
1.004368 0.749750 3.012270 23.000000 23 445.689642
1.056061 0.788617 2.481702 34.000000 21 445.689644
1.087310 0.811949 2.065687 37.000000 19 445.689647
1.116357 0.833636 1.744156 37.000000 17 445.689649
0.303878 0.193816 6.054250 91.000000 30 445.689657
0.547461 0.369032 6.104706 36.000000 29 445.689660
0.905137 0.658094 4.343092 10.000000 26 445.689662
0.986621 0.733827 3.397978 20.000000 24 445.689665
1.030281 0.766852 2.718256 30.000000 22 445.689667
1.070292 0.796916 2.252833 36.000000 20 445.689670
1.092411 0.813382 1.877576 37.000000 18 445.689673
1.121246 0.834848 1.593737 39.000000 16 445.689675
1.139458 0.853054 1.478566 39.000000 15 445.689633
1.158594 0.867377 1.248972 39.000000 13 445.689635
1.173465 0.878190 1.045559 40.000000 11 445.689638
1.185830 0.887440 0.861537 45.000000 9 445.689640
1.199673 0.897474 0.693640 42.000000 7 445.689643
1.210454 0.905209 0.533939 45.000000 5 445.689646
1.223439 0.914919 0.381517 40.000000 3 445.689648
1.228357 0.918263 0.230364 35.000000 1 445.689651
1.143133 0.853007 1.351063 39.000000 14 445.689658
1.155352 0.862120 1.133206 39.000000 12 445.689661
1.172936 0.874923 0.945165 44.000000 10 445.689664
1.197770 0.893444 0.778235 52.000000 8 445.689666
1.204352 0.898027 0.611716 50.000000 6 445.689669
1.212125 0.903493 0.455344 51.000000 4 445.689671
1.226954 0.914214 0.305354 37.000000 2 445.689674
1.237850 0.921996 0.155938 39.000000 0 445.689676
0.060210 0.027612 6.044044 30.000000 31 445.689687
0.783277 0.551587 6.090529 39.000000 28 445.689690
0.851840 0.598510 5.028659 11.000000 27 445.689692
0.946838 0.693619 3.797127 11.000000 25 445.689695
1.005410 0.745076 3.007668 24.000000 23 445.689697
1.056883 0.783500 2.477313 34.000000 21 445.689700
1.090137 0.808148 2.065687 37.000000 19 445.689702
1.116685 0.827825 1.740319 38.000000 17 445.689705
0.304553 0.192754 6.054250 91.000000 30 445.689713
0.548746 0.367119 6.104706 33.000000 29 445.689715
0.905388 0.653458 4.333414 10.000000 26 445.689718
0.987788 0.729354 3.393285 20.000000 24 445.689720
1.029449 0.760663 2.709255 31.000000 22 445.689723
1.070970 0.791625 2.248567 36.000000 20 445.689726
1.092820 0.807772 1.873586 38.000000 18 445.689728
1.121427 0.828914 1.590062 39.000000 16 445.689731
1.139567 0.846944 1.475061 39.000000 15 445.689688
1.158491 0.861005 1.245834 39.000000 13 445.689691
1.173167 0.871594 1.042817 40.000000 11 445.689693
1.185365 0.880654 0.859219 45.000000 9 445.689696
1.199077 0.890517 0.691767 44.000000 7 445.689699
1.209755 0.898119 0.532530 47.000000 5 445.689701
1.222680 0.907715 0.380584 39.000000 3 445.689704
1.231555 0.913970 0.230364 35.000000 1 445.689706
1.143103 0.846788 1.347738 39.000000 14 445.689714
1.155106 0.855676 1.130262 39.000000 12 445.689717
1.172518 0.868258 0.942633 42.000000 10 445.689719
1.197234 0.886557 0.776137 52.000000 8 445.689722
1.207479 0.893817 0.611716 48.000000 6 445.689724
1.211364 0.896365 0.454171 49.000000 4 445.689727
1.230138 0.909925 0.305354 37.000000 2 445.689729
1.237044 0.914700 0.155737 39.000000 0 445.689732
0.060306 0.027401 6.044044 30.000000 31 445.689743
0.784560 0.548404 6.085590 38.000000 28 445.689745
0.852253 0.594369 5.018868 11.000000 27 445.689748
0.948045 0.689431 3.792356 13.000000 25 445.689750
1.004857 0.739247 2.998463 23.000000 23 445.689753
1.057682 0.778386 2.472924 34.000000 21 445.689755
1.090685 0.802670 2.061553 37.000000 19 445.689758
1.116986 0.822022 1.736482 38.000000 17 445.689760
0.305224 0.191690 6.054250 91.000000 30 445.689768
0.550024 0.365201 6.104706 29.000000 29 445.689771
0.905618 0.648829 4.323735 10.000000 26 445.689773
0.988936 0.724881 3.388592 18.000000 24 445.689776
1.030342 0.755777 2.704754 30.000000 22 445.689778
1.071624 0.786339 2.244301 36.000000 20 445.689781
1.093203 0.802169 1.869597 37.000000 18 445.689784
1.121580 0.822989 1.586387 39.000000 16 445.689786
1.139647 0.840844 1.471557 39.000000 15 445.689744
1.158357 0.854645 1.242697 39.000000 13 445.689746
1.172837 0.865012 1.040076 40.000000 11 445.689749
1.184866 0.873881 0.856901 47.000000 9 445.689752
1.198447 0.883574 0.689894 42.000000 7 445.689754
1.209020 0.891044 0.531121 45.000000 5 445.689757
1.221887 0.900527 0.379652 39.000000 3 445.689759
1.230728 0.906711 0.229918 35.000000 1 445.689762
1.143044 0.840581 1.344413 39.000000 14 445.689770
1.154830 0.849244 1.127319 40.000000 12 445.689772
1.172068 0.861606 0.940100 42.000000 10 445.689775
1.196665 0.879684 0.774039 50.000000 8 445.689777
1.206787 0.886800 0.610073 50.000000 6 445.689780
1.210568 0.889254 0.452999 49.000000 4 445.689782
1.229315 0.902695 0.304664 37.000000 2 445.689785
1.240229 0.910376 0.155737 39.000000 0 445.689787
0.060402 0.027191 6.044044 31.000000 31 445.689798
0.786470 0.545662 6.085590 34.000000 28 445.689801
0.851810 0.589653 5.004183 11.000000 27 445.689803
0.949235 0.685243 3.787584 13.000000 25 445.689806
1.005853 0.734583 2.993860 23.000000 23 445.689808
1.058458 0.773275 2.468536 34.000000 21 445.689811
1.093480 0.798858 2.061553 37.000000 19 445.689813
1.117260 0.816227 1.732646 37.000000 17 445.689816
0.305891 0.190623 6.054250 91.000000 30 445.689824
0.551295 0.363279 6.104706 24.000000 29 445.689826
0.905828 0.644206 4.314057 10.000000 26 445.689829
0.990065 0.720410 3.383899 18.000000 24 445.689831
1.029453 0.749612 2.695752 30.000000 22 445.689834
1.072255 0.781058 2.240035 36.000000 20 445.689837
1.091124 0.794799 1.861618 37.000000 18 445.689839
1.121706 0.817072 1.582712 39.000000 16 445.689842
1.139698 0.834753 1.468052 39.000000 15 445.689799
1.158192 0.848296 1.239559 39.000000 13 445.689802
1.172475 0.858443 1.037334 40.000000 11 445.689804
1.187909 0.869740 0.856901 42.000000 9 445.689807
1.197783 0.876648 0.688021 42.000000 7 445.689810
1.208252 0.883986 0.529711 47.000000 5 445.689812
1.221059 0.893356 0.378719 39.000000 3 445.689815
1.229866 0.899470 0.229472 35.000000 1 445.689817
1.142955 0.834384 1.341088 39.000000 14 445.689825
1.157787 0.845208 1.127319 40.000000 12 445.689828
1.171586 0.854968 0.937568 40.000000 10 445.689830
1.196062 0.872826 0.771941 49.000000 8 445.689833
1.206059 0.879799 0.608430 48.000000 6 445.689835
1.209738 0.882159 0.451827 51.000000 4 445.689838
1.228457 0.895481 0.303974 37.000000 2 445.689840
1.239362 0.903099 0.155535 39.000000 0 445.689843
0.060496 0.026980 6.044044 34.000000 31 445.689854
0.787730 0.542473 6.080651 32.000000 28 445.689856
0.852185 0.585523 4.994393 12.000000 27 445.689859
0.951621 0.681926 3.787584 13.000000 25 445.689861
1.006830 0.729920 2.989258 22.000000 23 445.689864
1.057272 0.766763 2.459758 34.000000 21 445.689866
1.093984 0.793384 2.057421 37.000000 19 445.689869
1.117507 0.810440 1.728809 37.000000 17 445.689872
0.306555 0.189554 6.054250 90.000000 30 445.689879
0.552560 0.361353 6.104706 21.000000 29 445.689882
0.907043 0.640315 4.309218 10.000000 26 445.689884
0.989776 0.714928 3.374514 18.000000 24 445.689887
1.030298 0.744738 2.691251 30.000000 22 445.689890
1.070748 0.774254 2.231503 36.000000 20 445.689892
1.091450 0.789220 1.857628 37.000000 18 445.689895
1.121804 0.811166 1.579036 39.000000 16 445.689897
1.139720 0.828673 1.464548 39.000000 15 445.689855
1.157998 0.841959 1.236421 39.000000 13 445.689857
1.175465 0.854345 1.037334 40.000000 11 445.689860
1.187354 0.862983 0.854583 44.000000 9 445.689863
1.200836 0.872461 0.688021 44.000000 7 445.689865
1.211330 0.879763 0.529711 45.000000 5 445.689868
1.220195 0.886201 0.377787 39.000000 3 445.689870
1.232998 0.895171 0.229472 35.000000 1 445.689873
1.142837 0.828198 1.337763 39.000000 14 445.689881
1.157457 0.838790 1.124376 40.000000 12 445.689883
1.174563 0.850873 0.937568 40.000000 10 445.689886
1.195426 0.865983 0.769843 50.000000 8 445.689888
1.205298 0.872814 0.606788 50.000000 6 445.689891
1.212809 0.877931 0.451827 51.000000 4 445.689893
1.231575 0.891187 0.303974 37.000000 2 445.689896
1.238459 0.895839 0.155334 39.000000 0 445.689898
0.060590 0.026768 6.044044 35.000000 31 445.689909
0.789618 0.539720 6.080651 29.000000 28 445.689912
0.853382 0.581971 4.989498 12.000000 27 445.689914
0.952778 0.677734 3.782812 13.000000 25 445.689917
1.007786 0.725260 2.984655 22.000000 23 445.689919
1.057998 0.761668 2.455370 34.000000 21 445.689922
1.094463 0.787916 2.053288 37.000000 19 445.689924
1.120329 0.806534 1.728809 38.000000 17 445.689927
0.307215 0.188483 6.054250 90.000000 30 445.689935
0.556059 0.360872 6.129563 18.000000 29 445.689937
0.908242 0.636424 4.304379 10.000000 26 445.689940
0.990863 0.710464 3.369821 21.000000 24 445.689942
1.029353 0.738598 2.682250 30.000000 22 445.689945
1.071325 0.768991 2.227237 36.000000 20 445.689948
1.091749 0.783648 1.853639 37.000000 18 445.689950
1.121875 0.805268 1.575361 39.000000 16 445.689953
1.139714 0.822602 1.461043 39.000000 15 445.689910
1.157773 0.835633 1.233283 39.000000 13 445.689913
1.175049 0.847790 1.034593 40.000000 11 445.689916
1.186767 0.856241 0.852265 45.000000 9 445.689918
1.200114 0.865553 0.686148 42.000000 7 445.689921
1.210502 0.872724 0.528302 45.000000 5 445.689923
1.219296 0.879064 0.376854 39.000000 3 445.689926
1.232075 0.887950 0.229025 35.000000 1 445.689928
1.142689 0.822022 1.334438 39.000000 14 445.689936
1.157097 0.832384 1.121433 40.000000 12 445.689939
1.174026 0.844251 0.935036 42.000000 10 445.689941
1.194757 0.859156 0.767745 48.000000 8 445.689944
1.208338 0.868602 0.606788 50.000000 6 445.689946
1.211919 0.870856 0.450655 51.000000 4 445.689949
1.230656 0.883994 0.303284 37.000000 2 445.689951
1.241578 0.891511 0.155334 39.000000 0 445.689954
0.060724 0.026572 6.049043 38.000000 31 445.689965
0.790211 0.536089 6.070772 27.000000 28 445.689967
0.853721 0.577848 4.979707 12.000000 27 445.689970
0.953918 0.673543 3.778040 13.000000 25 445.689972
1.008721 0.720602 2.980053 21.000000 23 445.689975
1.058701 0.756577 2.450981 33.000000 21 445.689977
1.094917 0.782455 2.049155 37.000000 19 445.689980
1.120529 0.800755 1.724972 38.000000 17 445.689983
0.307871 0.187410 6.054250 89.000000 30 445.689990
0.558214 0.359506 6.139506 14.000000 29 445.689993
0.908393 0.631813 4.294700 10.000000 26 445.689995
0.990525 0.704999 3.360435 21.000000 24 445.689998
1.030151 0.733737 2.677749 31.000000 22 445.690001
1.071879 0.763733 2.222971 35.000000 20 445.690003
1.092024 0.778083 1.849649 37.000000 18 445.690006
1.121918 0.799380 1.571686 39.000000 16 445.690008
1.139679 0.816542 1.457538 39.000000 15 445.689966
1.160683 0.831587 1.233283 39.000000 13 445.689968
1.174601 0.841248 1.031851 40.000000 11 445.689971
1.189748 0.852093 0.852265 45.000000 9 445.689974
1.199358 0.858659 0.684275 42.000000 7 445.689976
1.213541 0.868493 0.528302 45.000000 5 445.689979
1.222357 0.874802 0.376854 39.000000 3 445.689981
1.235167 0.883644 0.229025 35.000000 1 445.689984
1.145552 0.818029 1.334438 39.000000 14 445.689992
1.156706 0.825991 1.118490 40.000000 12 445.689994
1.173457 0.837643 0.932503 42.000000 10 445.689997
1.194055 0.852343 0.765647 48.000000 8 445.689999
1.207518 0.861636 0.605145 50.000000 6 445.690002
1.214952 0.866620 0.450655 51.000000 4 445.690004
1.233735 0.879693 0.303284 37.000000 2 445.690007
1.240615 0.884272 0.155132 39.000000 0 445.690010
0.060816 0.026359 6.049043 39.000000 31 445.690020
0.791433 0.532894 6.065834 21.000000 28 445.690023
0.854888 0.574297 4.974812 12.000000 27 445.690025
0.955040 0.669352 3.773268 13.000000 25 445.690028
1.009637 0.715947 2.975450 22.000000 23 445.690030
1.059381 0.751491 2.446592 33.000000 21 445.690033
1.095347 0.777000 2.045022 37.000000 19 445.690036
1.120703 0.794984 1.721135 38.000000 17 445.690038
0.308523 0.186334 6.054250 89.000000 30 445.690046
0.563517 0.360139 6.184248 11.000000 29 445.690048
0.909558 0.627924 4.289861 10.000000 26 445.690051
0.990161 0.699546 3.351050 21.000000 24 445.690054
1.030927 0.728879 2.673248 29.000000 22 445.690056
1.072409 0.758481 2.218705 35.000000 20 445.690059
1.094733 0.774266 1.849649 37.000000 18 445.690061
1.121933 0.793501 1.568011 39.000000 16 445.690064
1.139617 0.810492 1.454034 39.000000 15 445.690021
1.160406 0.825274 1.230145 39.000000 13 445.690024
1.174123 0.834720 1.029110 40.000000 11 445.690027
1.189105 0.845368 0.849947 45.000000 9 445.690029
1.202348 0.854468 0.684275 44.000000 7 445.690032
1.212654 0.861473 0.526893 43.000000 5 445.690034
1.221399 0.867685 0.375921 39.000000 3 445.690037
1.234184 0.876444 0.228579 35.000000 1 445.690039
1.145354 0.811866 1.331114 39.000000 14 445.690047
1.156285 0.819611 1.115547 40.000000 12 445.690050
1.176374 0.833542 0.932503 42.000000 10 445.690052
1.193319 0.845546 0.763549 48.000000 8 445.690055
1.206665 0.854686 0.603502 50.000000 6 445.690057
1.214003 0.859565 0.449482 51.000000 4 445.690060
1.232756 0.872520 0.302594 37.000000 2 445.690062
1.243694 0.879936 0.155132 39.000000 0 445.690065
0.060908 0.026147 6.049043 41.000000 31 445.690076
0.791996 0.529265 6.055954 21.000000 28 445.690078
0.855192 0.570181 4.965021 12.000000 27 445.690081
0.954919 0.664309 3.763725 13.000000 25 445.690083
1.008935 0.710169 2.966245 24.000000 23 445.690086
1.060039 0.746409 2.442204 34.000000 21 445.690088
1.095751 0.771552 2.040889 37.000000 19 445.690091
1.120850 0.789221 1.717298 38.000000 17 445.690094
0.309139 0.185310 6.054250 89.000000 30 445.690101
0.570573 0.361980 6.248877 8.000000 29 445.690104
0.910597 0.624193 4.285022 10.000000 26 445.690106
0.989650 0.694277 3.341664 21.000000 24 445.690109
1.031683 0.724025 2.668747 28.000000 22 445.690112
1.072915 0.753234 2.214439 36.000000 20 445.690114
1.094962 0.768709 1.845660 37.000000 18 445.690117
1.121784 0.787828 1.564336 39.000000 16 445.690119
1.139525 0.804452 1.450529 39.000000 15 445.690077
1.160100 0.818973 1.227008 39.000000 13 445.690080
1.173613 0.828206 1.026368 40.000000 11 445.690082
1.188429 0.838658 0.847629 44.000000 9 445.690085
1.201387 0.847803 0.682402 44.000000 7 445.690087
1.215504 0.857447 0.526893 43.000000 5 445.690090
1.220406 0.860586 0.374989 39.000000 3 445.690092
1.233165 0.869261 0.228133 35.000000 1 445.690095
1.145126 0.805714 1.327789 39.000000 14 445.690103
1.155833 0.813244 1.112604 40.000000 12 445.690105
1.175605 0.827156 0.929971 42.000000 10 445.690108
1.196117 0.841584 0.763549 50.000000 8 445.690110
1.209492 0.850680 0.603502 48.000000 6 445.690113
1.212870 0.852739 0.448310 49.000000 4 445.690115
1.231591 0.865579 0.301905 37.000000 2 445.690118
1.242517 0.872935 0.154931 39.000000 0 445.690121
0.060994 0.025945 6.049043 41.000000 31 445.690131
0.792451 0.525777 6.046076 18.000000 28 445.690134
0.856229 0.566780 4.960126 11.000000 27 445.690136
0.954658 0.659441 3.754181 13.000000 25 445.690139
1.009683 0.705700 2.961643 24.000000 23 445.690141
1.060545 0.741517 2.437815 34.000000 21 445.690144
1.095998 0.766302 2.036756 37.000000 19 445.690147
1.120833 0.783663 1.713461 38.000000 17 445.690149
0.309784 0.184229 6.054250 89.000000 30 445.690157
0.577259 0.363394 6.308534 5.000000 29 445.690159
0.911730 0.620304 4.280182 10.000000 26 445.690162
0.990651 0.689832 3.336972 21.000000 24 445.690165
1.032291 0.719355 2.664246 28.000000 22 445.690167
1.073268 0.748181 2.210173 35.000000 20 445.690170
1.095033 0.763350 1.841670 37.000000 18 445.690172
1.121746 0.781969 1.560661 39.000000 16 445.690175
1.139267 0.798622 1.447025 39.000000 15 445.690132
1.159621 0.812887 1.223870 39.000000 13 445.690135
1.172928 0.821910 1.023627 40.000000 11 445.690138
1.187575 0.832170 0.845311 44.000000 9 445.690140
1.200542 0.840944 0.680529 44.000000 7 445.690143
1.214560 0.850448 0.525484 45.000000 5 445.690145
1.219229 0.853716 0.374056 39.000000 3 445.690148
1.231961 0.862311 0.227687 35.000000 1 445.690150
1.144730 0.799773 1.324464 39.000000 14 445.690158
1.158523 0.809406 1.112604 40.000000 12 445.690161
1.174951 0.820578 0.927438 42.000000 10 445.690163
1.195326 0.834805 0.761451 50.000000 8 445.690166
1.208582 0.843749 0.601860 48.000000 6 445.690168
1.211853 0.845718 0.447138 49.000000 4 445.690171
1.234604 0.861275 0.301905 37.000000 2 445.690174
1.241458 0.865734 0.154729 39.000000 0 445.690176
0.061085 0.025732 6.049043 45.000000 31 445.690187
0.792984 0.522153 6.036198 16.000000 28 445.690189
0.856500 0.562670 4.950336 12.000000 27 445.690192
0.955723 0.655260 3.749410 13.000000 25 445.690194
1.008930 0.699944 2.952438 24.000000 23 445.690197
1.061158 0.736445 2.433426 33.000000 21 445.690200
1.096354 0.760867 2.032623 37.000000 19 445.690202
1.123562 0.779746 1.713461 38.000000 17 445.690205
0.310425 0.183147 6.054250 89.000000 30 445.690212
0.266312 0.166815 2.883231 10.000000 29 445.690215
0.911805 0.615710 4.270504 10.000000 26 445.690218
0.990214 0.684407 3.327586 21.000000 24 445.690220
1.033005 0.714509 2.659745 30.000000 22 445.690223
1.073728 0.742946 2.205907 35.000000 20 445.690225
1.097691 0.759523 1.841670 37.000000 18 445.690228
1.121681 0.776119 1.556985 39.000000 16 445.690230
1.139120 0.792603 1.443520 39.000000 15 445.690188
1.162452 0.808834 1.223870 39.000000 13 445.690191
1.172358 0.815423 1.020886 40.000000 11 445.690193
1.190473 0.828020 0.845311 45.000000 9 445.690196
1.203471 0.836748 0.680529 44.000000 7 445.690198
1.213582 0.843465 0.524075 45.000000 5 445.690201
1.222202 0.849455 0.374056 39.000000 3 445.690203
1.234964 0.858006 0.227687 35.000000 1 445.690206
1.144447 0.793644 1.321139 39.000000 14 445.690214
1.158020 0.803054 1.109660 40.000000 12 445.690216
1.177808 0.816472 0.927438 42.000000 10 445.690219
1.198233 0.830628 0.761451 50.000000 8 445.690221
1.207639 0.836836 0.600217 48.000000 6 445.690224
1.214798 0.841483 0.447138 49.000000 4 445.690226
1.233532 0.854141 0.301215 37.000000 2 445.690229
1.240365 0.858552 0.154528 39.000000 0 445.690232
0.061174 0.025518 6.049043 45.000000 31 445.690242
0.794151 0.518957 6.031258 16.000000 28 445.690245
0.857606 0.559121 4.945440 12.000000 27 445.690247
0.955534 0.650240 3.739866 13.000000 25 445.690250
1.009758 0.695310 2.947835 24.000000 23 445.690252
1.061750 0.731377 2.429038 33.000000 21 445.690255
1.096686 0.755439 2.028490 37.000000 19 445.690257
1.123637 0.774000 1.709624 38.000000 17 445.690260
0.311313 0.182208 6.059242 89.000000 30 445.690268
0.267801 0.166446 2.893174 12.000000 29 445.690270
0.912904 0.611823 4.265665 10.000000 26 445.690273
0.991174 0.679970 3.322893 20.000000 24 445.690275
1.033821 0.709485 2.655245 30.000000 22 445.690278
1.074294 0.737529 2.201642 35.000000 20 445.690280
1.097982 0.753789 1.837681 37.000000 18 445.690283
1.121723 0.770084 1.553310 39.000000 16 445.690286
1.138945 0.786596 1.440016 39.000000 15 445.690243
1.162065 0.802559 1.220732 39.000000 13 445.690246
1.171756 0.808950 1.018144 40.000000 11 445.690248
1.189710 0.821342 0.842993 44.000000 9 445.690251
1.202569 0.829909 0.678656 44.000000 7 445.690254
1.212570 0.836499 0.522666 47.000000 5 445.690256
1.221263 0.842181 0.373123 39.000000 3 445.690259
1.234000 0.850647 0.227241 34.000000 1 445.690261
1.147348 0.789444 1.321139 39.000000 14 445.690269
1.160955 0.798804 1.109660 40.000000 12 445.690272
1.177241 0.809706 0.924906 42.000000 10 445.690274
1.197530 0.823658 0.759353 50.000000 8 445.690277
1.210698 0.832404 0.600217 48.000000 6 445.690279
1.213868 0.834272 0.445965 49.000000 4 445.690282
1.232573 0.846810 0.300525 37.000000 2 445.690284
1.243354 0.854217 0.154528 39.000000 0 445.690287
0.061267 0.025294 6.049043 41.000000 31 445.690298
0.795395 0.515621 6.026319 15.000000 28 445.690300
0.857939 0.554869 4.935650 12.000000 27 445.690303
0.955435 0.645062 3.730323 13.000000 25 445.690305
1.010686 0.690503 2.943233 24.000000 23 445.690308
1.060467 0.724777 2.420260 34.000000 21 445.690310
1.097124 0.749826 2.024357 37.000000 19 445.690313
1.123819 0.768068 1.705787 38.000000 17 445.690315
0.311979 0.181066 6.059242 87.000000 30 445.690323
0.269319 0.166022 2.903117 14.000000 29 445.690326
0.914093 0.607777 4.260826 10.000000 26 445.690328
0.990806 0.674391 3.313508 20.000000 24 445.690331
1.034492 0.704646 2.650744 31.000000 22 445.690333
1.074707 0.732306 2.197376 35.000000 20 445.690336
1.098116 0.748254 1.833691 37.000000 18 445.690339
1.121603 0.764255 1.549635 39.000000 16 445.690341
1.141821 0.782416 1.440016 39.000000 15 445.690299
1.161787 0.796094 1.217594 39.000000 13 445.690301
1.174713 0.804650 1.018144 40.000000 11 445.690304
1.189057 0.814472 0.840675 44.000000 9 445.690306
1.201777 0.822877 0.676783 44.000000 7 445.690309
1.215628 0.832049 0.522666 47.000000 5 445.690312
1.224195 0.837913 0.373123 39.000000 3 445.690314
1.232852 0.843522 0.226794 34.000000 1 445.690317
1.147012 0.783329 1.317814 39.000000 14 445.690324
1.160399 0.792467 1.106717 42.000000 12 445.690327
1.176499 0.803162 0.922373 44.000000 10 445.690330
1.196649 0.816914 0.757255 50.000000 8 445.690332
1.209695 0.825511 0.598574 50.000000 6 445.690335
1.212758 0.827290 0.444793 49.000000 4 445.690337
1.231429 0.839713 0.299835 37.000000 2 445.690340
1.242349 0.846841 0.154326 39.000000 0 445.690342
0.061355 0.025080 6.049043 42.000000 31 445.690353
0.796537 0.512421 6.021380 12.000000 28 445.690356
0.858156 0.550772 4.925859 12.000000 27 445.690358
0.956440 0.640892 3.725551 13.000000 25 445.690361
1.011473 0.685874 2.938630 25.000000 23 445.690363
1.061008 0.719726 2.415872 34.000000 21 445.690366
1.097406 0.744413 2.020224 36.000000 19 445.690368
1.126493 0.764140 1.705787 38.000000 17 445.690371
0.312609 0.179975 6.059242 88.000000 30 445.690379
0.269897 0.165080 2.903117 16.000000 29 445.690381
0.914109 0.603197 4.251148 10.000000 26 445.690384
0.996014 0.672860 3.322893 19.000000 24 445.690386
1.035141 0.699811 2.646243 30.000000 22 445.690389
1.075096 0.727090 2.193110 36.000000 20 445.690392
1.098225 0.742728 1.829702 37.000000 18 445.690394
1.121456 0.758436 1.545960 38.000000 16 445.690397
1.141596 0.776420 1.436511 38.000000 15 445.690354
1.164559 0.792034 1.217594 39.000000 13 445.690357
1.174056 0.798194 1.015403 40.000000 11 445.690359
1.188229 0.807826 0.838357 45.000000 9 445.690362
1.204642 0.818677 0.676783 42.000000 7 445.690365
1.214557 0.825105 0.521256 43.000000 5 445.690367
1.223049 0.830875 0.372191 39.000000 3 445.690370
1.231669 0.836416 0.226348 35.000000 1 445.690372
1.146649 0.777225 1.314489 39.000000 14 445.690380
1.159812 0.786144 1.103774 40.000000 12 445.690383
1.175726 0.796632 0.919841 42.000000 10 445.690385
1.195736 0.810186 0.755157 52.000000 8 445.690388
1.212569 0.821283 0.598574 48.000000 6 445.690390
1.215638 0.823052 0.444793 49.000000 4 445.690393
1.230252 0.832633 0.299145 37.000000 2 445.690395
1.241159 0.839700 0.154125 39.000000 0 445.690398
0.061442 0.024866 6.049043 55.000000 31 445.690409
0.797666 0.509220 6.016440 10.000000 28 445.690411
0.857496 0.546133 4.911174 12.000000 27 445.690414
0.957428 0.636722 3.720780 13.000000 25 445.690416
1.010620 0.680158 2.929425 25.000000 23 445.690419
1.061526 0.714680 2.411483 34.000000 21 445.690421
1.097663 0.739006 2.016091 36.000000 19 445.690424
1.126494 0.758413 1.701950 38.000000 17 445.690426
0.313204 0.178938 6.059242 90.000000 30 445.690434
0.269986 0.163909 2.898146 19.000000 29 445.690437
0.915052 0.599474 4.246308 10.000000 26 445.690439
1.002540 0.672437 3.336972 17.000000 24 445.690442
1.035769 0.694980 2.641742 30.000000 22 445.690444
1.075462 0.721879 2.188844 36.000000 20 445.690447
1.098308 0.737210 1.825712 37.000000 18 445.690450
1.121150 0.752823 1.542285 38.000000 16 445.690452
1.141343 0.770435 1.433007 38.000000 15 445.690410
1.164090 0.785786 1.214457 39.000000 13 445.690412
1.176835 0.794091 1.015403 40.000000 11 445.690415
1.187369 0.801196 0.836038 44.000000 9 445.690418
1.203507 0.812085 0.674910 44.000000 7 445.690420
1.213309 0.818390 0.519847 43.000000 5 445.690423
1.221869 0.823854 0.371258 39.000000 3 445.690425
1.234581 0.832111 0.226348 35.000000 1 445.690428
1.146256 0.771133 1.311164 39.000000 14 445.690436
1.159196 0.779835 1.100831 40.000000 12 445.690438
1.178362 0.792728 0.919841 44.000000 10 445.690441
1.194651 0.803683 0.753058 52.000000 8 445.690443
1.211367 0.814622 0.596932 48.000000 6 445.690446
1.214327 0.816305 0.443621 49.000000 4 445.690448
1.228896 0.825787 0.298455 37.000000 2 445.690451
1.243937 0.835579 0.154125 39.000000 0 445.690453
0.061524 0.024662 6.049043 55.000000 31 445.690464
0.798693 0.506156 6.011501 9.000000 28 445.690467
0.857581 0.542199 4.901383 12.000000 27 445.690469
0.958288 0.632721 3.716008 14.000000 25 445.690472
1.011245 0.675717 2.924823 25.000000 23 445.690474
1.061899 0.709825 2.407094 34.000000 21 445.690477
1.097768 0.733798 2.011958 37.000000 19 445.690479
1.126338 0.752892 1.698113 38.000000 17 445.690482
0.313827 0.177843 6.059242 90.000000 30 445.690490
0.269641 0.162416 2.888203 22.000000 29 445.690492
0.915029 0.594905 4.236629 10.000000 26 445.690495
0.989079 0.658415 3.285351 13.000000 24 445.690497
1.036256 0.690335 2.637241 31.000000 22 445.690500
1.075680 0.716862 2.184578 36.000000 20 445.690503
1.098239 0.731893 1.821723 37.000000 18 445.690505
1.120950 0.747025 1.538610 38.000000 16 445.690508
1.143892 0.766646 1.433007 38.000000 15 445.690465
1.163456 0.779754 1.211319 38.000000 13 445.690468
1.175988 0.787856 1.012661 40.000000 11 445.690470
1.186339 0.794788 0.833720 44.000000 9 445.690473
1.206335 0.807879 0.674910 44.000000 7 445.690476
1.216159 0.814150 0.519847 43.000000 5 445.690478
1.224594 0.819798 0.371258 39.000000 3 445.690481
1.233194 0.825243 0.225902 35.000000 1 445.690483
1.148807 0.767328 1.311164 39.000000 14 445.690491
1.161775 0.775986 1.100831 40.000000 12 445.690494
1.177536 0.786216 0.917309 45.000000 10 445.690496
1.197449 0.799508 0.753058 50.000000 8 445.690499
1.210276 0.807767 0.595289 48.000000 6 445.690501
1.217169 0.812061 0.443621 51.000000 4 445.690504
1.227651 0.818745 0.297766 36.000000 2 445.690506
1.242689 0.828461 0.153923 39.000000 0 445.690509
0.061610 0.024447 6.049043 61.000000 31 445.690520
0.799797 0.502952 6.006562 11.000000 28 445.690522
0.857743 0.538120 4.891593 11.000000 27 445.690525
0.959241 0.628553 3.711236 14.000000 25 445.690527
1.010341 0.670024 2.915617 25.000000 23 445.690530
1.062374 0.704789 2.402706 34.000000 21 445.690532
1.097978 0.728406 2.007825 37.000000 19 445.690535
1.126288 0.747183 1.694276 37.000000 17 445.690538
0.314446 0.176747 6.059242 90.000000 30 445.690545
0.269747 0.161201 2.883231 24.000000 29 445.690548
0.916043 0.591026 4.231791 10.000000 26 445.690550
1.036842 0.685512 2.632740 30.000000 22 445.690556
1.078175 0.713103 2.184578 36.000000 20 445.690558
1.098273 0.726392 1.817733 37.000000 18 445.690561
1.120723 0.741237 1.534934 38.000000 16 445.690563
1.143592 0.760673 1.429502 38.000000 15 445.690521
1.166170 0.775688 1.211319 38.000000 13 445.690523
1.178731 0.783747 1.012661 40.000000 11 445.690526
1.189106 0.790642 0.833720 44.000000 9 445.690529
1.205287 0.801097 0.673037 44.000000 7 445.690531
1.214997 0.807245 0.518438 43.000000 5 445.690534
1.223357 0.812800 0.370326 39.000000 3 445.690536
1.231919 0.818178 0.225456 35.000000 1 445.690539
1.148366 0.761250 1.307840 39.000000 14 445.690547
1.161108 0.769693 1.097888 39.000000 12 445.690549
1.176679 0.779720 0.914776 45.000000 10 445.690552
1.196449 0.792817 0.750960 50.000000 8 445.690554
1.209151 0.800930 0.593646 50.000000 6 445.690557
1.215943 0.805124 0.442448 49.000000 4 445.690559
1.226372 0.811721 0.297076 37.000000 2 445.690562
1.241407 0.821361 0.153722 40.000000 0 445.690564
0.061695 0.024232 6.049043 61.000000 31 445.690575
0.800889 0.499746 6.001623 10.000000 28 445.690578
0.858751 0.534585 4.886698 11.000000 27 445.690580
0.960177 0.624387 3.706464 14.000000 25 445.690583
1.011042 0.665419 2.911015 25.000000 23 445.690585
1.062827 0.699759 2.398317 35.000000 21 445.690588
1.098164 0.723021 2.003692 37.000000 19 445.690590
1.126211 0.741484 1.690439 38.000000 17 445.690593
0.315061 0.175648 6.059242 89.000000 30 445.690601
0.269848 0.159987 2.878260 26.000000 29 445.690603
0.915982 0.586468 4.222112 10.000000 26 445.690606
0.879642 0.576746 2.914623 4.000000 24 445.690608
1.037408 0.680694 2.628239 30.000000 22 445.690611
1.078478 0.707904 2.180312 36.000000 20 445.690614
1.098282 0.720900 1.813744 37.000000 18 445.690616
1.120469 0.735460 1.531259 38.000000 16 445.690619
1.143264 0.754712 1.425998 38.000000 15 445.690576
1.165622 0.769468 1.208181 39.000000 13 445.690579
1.177970 0.777324 1.009920 40.000000 11 445.690582
1.188161 0.784046 0.831402 45.000000 9 445.690584
1.204206 0.794332 0.671164 44.000000 7 445.690587
1.213803 0.800358 0.517029 43.000000 5 445.690589
1.222086 0.805820 0.369393 39.000000 3 445.690592
1.234768 0.813873 0.225456 35.000000 1 445.690594
1.151016 0.757236 1.307840 39.000000 14 445.690602
1.160411 0.763414 1.094944 39.000000 12 445.690605
1.179394 0.775608 0.914776 40.000000 10 445.690607
1.199209 0.788635 0.750960 49.000000 8 445.690610
1.207993 0.794110 0.592004 50.000000 6 445.690612
1.214684 0.798205 0.441276 49.000000 4 445.690615
1.225059 0.804716 0.296386 36.000000 2 445.690617
1.240090 0.814280 0.153520 39.000000 0 445.690620
0.061821 0.024030 6.054043 65.000000 31 445.690631
0.801967 0.496538 5.996684 12.000000 28 445.690633
0.858879 0.530515 4.876907 12.000000 27 445.690636
0.961096 0.620222 3.701693 13.000000 25 445.690638
1.011723 0.660817 2.906412 25.000000 23 445.690641
1.063257 0.694735 2.393928 34.000000 21 445.690643
1.098325 0.717645 1.999559 37.000000 19 445.690646
1.128793 0.737548 1.690439 38.000000 17 445.690649
0.315672 0.174547 6.059242 89.000000 30 445.690656
0.269483 0.158505 2.868317 27.000000 29 445.690659
0.916962 0.582593 4.217273 10.000000 26 445.690661
1.037953 0.675880 2.623739 30.000000 22 445.690667
1.078757 0.702712 2.176046 36.000000 20 445.690669
1.098266 0.715417 1.809754 37.000000 18 445.690672
1.123030 0.731545 1.531259 39.000000 16 445.690674
1.145891 0.750717 1.425998 38.000000 15 445.690632
1.165045 0.763262 1.205043 39.000000 13 445.690634
1.177178 0.770917 1.007178 40.000000 11 445.690637
1.190891 0.779894 0.831402 42.000000 9 445.690640
1.203092 0.787585 0.669291 44.000000 7 445.690642
1.212575 0.793490 0.515620 43.000000 5 445.690645
1.224891 0.801549 0.369393 39.000000 3 445.690647
1.233433 0.806832 0.225009 35.000000 1 445.690650
1.150526 0.751172 1.304515 39.000000 14 445.690658
1.163068 0.759358 1.094944 39.000000 12 445.690660
1.178484 0.769130 0.912244 40.000000 10 445.690663
1.198154 0.781964 0.748862 47.000000 8 445.690665
1.210758 0.789888 0.592004 48.000000 6 445.690668
1.217463 0.793960 0.441276 49.000000 4 445.690670
1.223712 0.797731 0.295696 36.000000 2 445.690673
1.242925 0.809947 0.153520 39.000000 0 445.690676
0.061904 0.023814 6.054043 65.000000 31 445.690686
0.803034 0.493330 5.991744 11.000000 28 445.690689
0.859858 0.526982 4.872012 11.000000 27 445.690691
0.961997 0.616058 3.696921 13.000000 25 445.690694
1.012384 0.656219 2.901810 25.000000 23 445.690696
1.063665 0.689716 2.389540 34.000000 21 445.690699
1.098462 0.712275 1.995426 37.000000 19 445.690702
1.128670 0.731860 1.686602 38.000000 17 445.690704
0.316279 0.173444 6.059242 88.000000 30 445.690712
0.269573 0.157296 2.863346 28.000000 29 445.690714
0.916862 0.578047 4.207594 10.000000 26 445.690717
0.799563 0.516299 2.642442 2.000000 24 445.690720
1.038477 0.671071 2.619238 30.000000 22 445.690722
1.079013 0.697526 2.171780 36.000000 20 445.690725
1.098226 0.709943 1.805765 37.000000 18 445.690727
1.122730 0.725780 1.527584 38.000000 16 445.690730
1.145515 0.744768 1.422493 39.000000 15 445.690687
1.164438 0.757068 1.201905 39.000000 13 445.690690
1.179862 0.766803 1.007178 40.000000 11 445.690693
1.189891 0.773318 0.829084 42.000000 9 445.690695
1.205834 0.783380 0.669291 40.000000 7 445.690698
1.211314 0.786640 0.514210 43.000000 5 445.690700
1.223562 0.794594 0.368460 39.000000 3 445.690703
1.232065 0.799810 0.224563 35.000000 1 445.690705
1.150007 0.745121 1.301190 39.000000 14 445.690713
1.162320 0.753096 1.092001 39.000000 12 445.690716
